ply
format ascii 1.0
comment frame_id glim_map
comment stamp 118.640000000
element vertex 1195
property float x
property float y
property float z
property uchar red
property uchar green
property uchar blue
end_header
0.436016 7.130879 -0.612722 218 158 145
0.467965 8.931476 1.363474 182 193 201
0.471703 9.003046 0.669421 83 94 97
0.477250 9.108788 1.035209 79 88 92
0.415785 9.525594 1.847449 198 206 204
0.553536 -15.847241 -0.504680 243 65 57
0.553650 -15.850176 0.105339 243 66 58
0.514282 -6.534161 -0.578421 103 109 115
0.510920 -4.016105 -0.590394 235 236 229
0.501931 -2.643787 -0.564394 235 235 229
0.548165 -2.635438 -0.564508 235 235 229
0.520384 -2.048992 -0.569554 234 235 228
0.521411 -1.581262 -0.557560 234 234 228
0.519946 -1.319990 -0.562273 234 234 228
0.495953 -1.127177 -0.565407 234 234 227
0.540076 -1.107350 -0.565589 234 234 227
0.520465 -0.919937 -0.558472 234 234 227
0.493492 -0.805333 -0.561322 234 234 227
0.531560 -0.780717 -0.561382 234 234 227
0.520743 -0.672558 -0.563697 234 234 227
0.494261 -0.573632 -0.558639 234 234 227
0.488961 -0.488971 -0.560700 234 234 227
0.535449 -0.535455 -0.558760 234 234 227
0.531454 -0.442004 -0.560829 234 234 227
0.509400 -0.360003 -0.556875 234 234 227
0.548779 -0.297955 -0.556989 234 234 227
0.548780 0.298016 -0.557004 234 234 227
0.509402 0.360067 -0.556895 234 234 227
0.531457 0.442072 -0.560854 234 234 227
0.488974 0.489050 -0.560735 234 234 227
0.535445 0.535520 -0.558784 234 234 227
0.494271 0.573714 -0.558675 234 234 227
0.520755 0.672650 -0.563739 234 234 227
0.531571 0.780814 -0.561428 234 234 227
0.493509 0.805446 -0.561375 234 234 227
0.520456 0.920021 -0.558514 230 230 223
0.540109 1.107526 -0.565667 225 226 218
0.495981 1.127354 -0.565486 225 226 218
0.519966 1.320173 -0.562354 234 234 228
0.521431 1.581488 -0.557653 234 234 228
0.520690 2.050501 -0.569887 234 235 228
0.548187 2.635890 -0.564654 235 235 228
0.501947 2.644239 -0.564541 235 235 229
0.510906 4.016772 -0.590593 235 235 229
0.498609 7.132260 -0.613039 217 156 143
0.529773 8.663449 1.663842 194 201 206
0.545634 8.922908 1.362746 191 200 206
0.550420 9.001456 0.320735 229 50 43
0.549509 8.986462 0.668248 71 81 84
0.550165 8.997088 1.020666 89 99 100
0.552078 9.027972 2.483819 203 206 206
0.491865 9.387477 1.818607 192 202 206
0.553342 15.852043 -0.505323 220 200 169
0.553458 15.855080 0.104881 215 195 164
0.599887 -6.528137 -0.578500 103 109 115
0.598643 -4.005548 -0.590553 235 236 229
0.605752 -2.623821 -0.564649 235 235 229
0.601112 -2.029345 -0.569997 234 235 228
0.603882 -1.552901 -0.557815 234 234 228
0.588703 -1.291819 -0.562486 234 234 228
0.627799 -1.273086 -0.562419 234 234 228
0.602253 -1.075424 -0.565798 234 234 227
0.571955 -0.889223 -0.558509 234 234 227
0.614255 -0.861169 -0.558720 234 234 227
0.584982 -0.742056 -0.561542 234 234 227
0.626387 -0.708009 -0.561658 234 234 227
0.601766 -0.601766 -0.563919 234 234 227
0.573958 -0.494556 -0.558851 234 234 227
0.563337 -0.401823 -0.560916 234 234 227
0.614774 -0.442568 -0.558973 234 234 227
0.589698 -0.361359 -0.560990 234 234 227
0.627200 -0.292456 -0.561094 234 234 227
0.568378 -0.259014 -0.557048 234 234 227
0.591174 -0.200660 -0.557105 233 234 227
0.612997 -0.119133 -0.557166 233 234 227
0.623276 -0.040825 -0.557216 233 234 227
0.623388 0.038161 -0.557217 233 234 227
0.613000 0.119193 -0.557173 234 234 227
0.591183 0.200723 -0.557120 234 234 227
0.627206 0.292521 -0.561112 234 234 227
0.568380 0.259076 -0.557062 234 234 227
0.589706 0.361427 -0.561013 234 234 227
0.563334 0.401886 -0.560934 234 234 227
0.614789 0.442645 -0.559003 234 234 227
0.573970 0.494635 -0.558883 234 234 227
0.601775 0.601847 -0.563954 234 234 227
0.626394 0.708097 -0.561696 234 234 227
0.584972 0.742123 -0.561572 234 234 227
0.614259 0.861262 -0.558764 234 234 227
0.572016 0.889407 -0.558591 234 234 227
0.602232 1.075493 -0.565838 225 226 218
0.627532 1.272656 -0.562325 234 234 228
0.588728 1.291996 -0.562564 234 234 228
0.603923 1.553157 -0.557914 234 234 228
0.601147 2.029675 -0.570117 234 235 228
0.605784 2.624275 -0.564796 235 235 228
0.598645 4.006228 -0.590753 235 235 229
0.592583 7.132913 -0.613496 215 158 147
0.606230 8.671187 0.977122 111 122 114
0.609688 8.720481 1.677184 201 204 205
0.617548 8.832818 2.060769 201 206 206
0.620387 8.873332 2.439356 192 205 205
0.621411 8.888233 1.357563 168 179 194
0.626723 8.964542 -0.027293 230 50 42
0.632762 9.050834 0.323889 228 50 42
0.632515 9.047217 0.674616 77 84 98
0.572534 9.362578 2.194992 200 206 206
0.692017 -15.846622 -0.504775 243 65 57
0.692157 -15.849560 0.105430 243 66 58
0.685438 -6.521190 -0.578583 103 108 115
0.686171 -3.993236 -0.590715 235 236 229
0.674545 -2.608287 -0.564822 235 235 228
0.671970 -2.008333 -0.570202 234 235 228
0.707129 -1.996899 -0.570304 234 235 228
0.664834 -1.529039 -0.558030 234 234 228
0.704928 -1.511747 -0.558182 234 234 228
0.677343 -1.247518 -0.562492 234 234 228
0.648658 -1.048241 -0.565768 234 234 227
0.689687 -1.022510 -0.566018 234 234 227
0.665915 -0.822345 -0.558846 234 234 227
0.704899 -0.789778 -0.558960 234 234 227
0.668534 -0.668535 -0.561772 234 234 227
0.708422 -0.626759 -0.561874 234 234 227
0.673327 -0.521339 -0.564120 234 234 227
0.712782 -0.467315 -0.564234 234 234 227
0.642986 -0.401777 -0.559078 234 234 227
0.667557 -0.358679 -0.559122 234 234 227
0.645302 -0.250930 -0.561152 233 234 227
0.705364 -0.277834 -0.559233 233 234 227
0.662720 -0.199437 -0.561206 233 234 227
0.681712 -0.120181 -0.561252 233 234 227
0.691019 -0.042235 -0.561296 233 234 227
0.691150 0.039278 -0.561304 233 234 227
0.681710 0.120241 -0.561257 233 234 227
0.662721 0.199499 -0.561216 233 234 227
0.645310 0.250995 -0.561169 234 234 227
0.705377 0.277903 -0.559253 234 234 227
0.667562 0.358746 -0.559142 234 234 227
0.712778 0.467380 -0.564254 234 234 227
0.642945 0.401816 -0.559074 234 234 227
0.673340 0.521419 -0.564152 234 234 227
0.708466 0.626872 -0.561926 234 234 227
0.668551 0.668629 -0.561813 234 234 227
0.704971 0.789941 -0.559034 234 234 227
0.665934 0.822453 -0.558895 234 234 227
0.694282 1.019794 -0.566125 225 225 218
0.653354 1.045701 -0.565895 225 225 218
0.677425 1.247781 -0.562594 234 234 228
0.704993 1.512020 -0.558285 234 234 228
0.664890 1.529310 -0.558132 234 234 228
0.707178 1.997227 -0.570423 234 235 228
0.672015 2.008664 -0.570321 234 235 228
0.674590 2.608751 -0.564969 234 235 228
0.686191 3.993938 -0.590917 235 235 229
0.686621 7.132163 -0.613936 215 162 151
0.684112 8.693767 2.026621 161 169 166
0.690637 8.776907 0.992245 113 129 113
0.687425 8.735938 1.681729 165 172 155
0.695324 8.836383 1.349480 148 162 155
0.694195 8.821820 2.425735 194 205 206
0.701705 8.917627 0.662647 105 125 63
0.708525 9.004429 -0.026414 229 50 42
0.712170 9.050681 0.324219 210 59 42
0.691917 15.852624 -0.505441 220 199 168
0.692060 15.855661 0.104994 226 206 177
0.770911 -6.513092 -0.578672 102 108 115
0.756016 -3.982006 -0.590849 235 236 229
0.754296 -2.587874 -0.565030 235 235 228
0.759417 -1.978360 -0.570457 234 235 228
0.764157 -1.483711 -0.558409 234 234 228
0.737132 -1.214771 -0.562810 234 234 227
0.779494 -1.188937 -0.563005 234 234 227
0.746846 -0.982165 -0.566153 234 234 227
0.785282 -0.952631 -0.566333 234 234 227
0.748612 -0.748612 -0.559069 234 234 227
0.790306 -0.705376 -0.559205 234 234 227
0.742985 -0.585718 -0.562002 234 234 227
0.782264 -0.532617 -0.562110 233 234 227
0.738108 -0.426137 -0.564300 233 234 227
0.772584 -0.360247 -0.564415 233 234 227
0.794897 -0.309102 -0.564480 233 234 227
0.731621 -0.199442 -0.559305 233 234 227
0.748561 -0.121888 -0.559354 233 234 227
0.757325 -0.042976 -0.559413 233 234 227
0.757442 0.039729 -0.559414 233 234 227
0.748565 0.121950 -0.559362 233 234 227
0.731631 0.199507 -0.559319 233 234 227
0.794927 0.309179 -0.564508 233 234 227
0.772586 0.360314 -0.564432 233 234 227
0.738129 0.426216 -0.564329 234 234 227
0.782288 0.532704 -0.562145 233 234 227
0.742998 0.585801 -0.562035 234 234 227
0.790326 0.705470 -0.559246 234 234 227
0.748631 0.748708 -0.559112 234 234 227
0.785351 0.952803 -0.566409 225 225 218
0.746857 0.982266 -0.566203 225 225 218
0.779554 1.189132 -0.563086 234 234 228
0.737211 1.215007 -0.562904 234 234 228
0.764227 1.483975 -0.558510 234 234 228
0.759474 1.978688 -0.570576 234 234 228
0.754360 2.588357 -0.565180 234 235 228
0.756053 3.982740 -0.591054 235 235 229
0.749344 7.130754 -0.614219 215 162 152
0.750024 8.574111 1.304580 136 149 131
0.761295 8.703009 0.983063 108 126 61
0.758776 8.674023 2.023175 144 158 135
0.765550 8.751527 1.686453 122 140 98
0.772302 8.828568 2.429648 167 177 172
0.787404 9.001670 -0.026343 203 79 47
0.785000 8.974119 0.320160 196 86 45
0.786753 8.994100 0.670674 116 136 60
0.830593 -15.846004 -0.504894 243 65 57
0.830758 -15.848938 0.105543 243 66 58
0.856317 -6.504114 -0.578768 102 108 115
0.843071 -3.966280 -0.591026 235 235 229
0.822224 -2.568636 -0.565216 235 235 228
0.867231 -2.554787 -0.565345 235 235 228
0.844065 -1.941259 -0.570059 234 235 228
0.822373 -1.453553 -0.558624 234 234 228
0.860040 -1.431370 -0.558585 234 234 228
0.840586 -1.146411 -0.563031 234 234 227
0.834052 -0.910205 -0.566412 234 234 227
0.873348 -0.873349 -0.566484 234 234 227
0.823374 -0.666751 -0.559302 234 234 227
0.862783 -0.615410 -0.559404 234 234 227
0.809337 -0.491109 -0.562177 233 234 227
0.839634 -0.437071 -0.562259 233 234 227
0.870135 -0.373824 -0.562337 233 234 227
0.809972 -0.267069 -0.564530 233 234 227
0.829257 -0.199063 -0.564576 233 234 227
0.844631 -0.118676 -0.564625 233 234 227
0.852058 -0.040898 -0.564649 233 234 227
0.852164 0.037241 -0.564647 233 234 227
0.844646 0.118743 -0.564637 233 234 227
0.829257 0.199128 -0.564585 233 234 227
0.809974 0.267135 -0.564543 233 234 227
0.870202 0.373921 -0.562381 233 234 227
0.839628 0.437137 -0.562276 233 234 227
0.809348 0.491185 -0.562204 233 234 227
0.862813 0.615505 -0.559443 234 234 227
0.823393 0.666842 -0.559340 234 234 227
0.873509 0.873595 -0.566590 234 234 227
0.834051 0.910288 -0.566452 232 232 225
0.840617 1.146545 -0.563094 234 234 227
0.859748 1.431003 -0.558526 234 234 228
0.822438 1.453789 -0.558717 234 234 228
0.843811 1.940796 -0.570028 234 234 228
0.867325 2.555298 -0.565498 234 235 228
0.822305 2.569136 -0.565367 234 235 228
0.843133 3.967057 -0.591235 235 235 229
0.843450 7.127277 -0.614629 217 160 148
0.819386 8.510711 1.983066 125 141 91
0.835553 8.678744 1.324161 109 117 100
0.832850 8.650605 1.666193 102 118 62
0.846334 8.790835 0.651679 107 121 60
0.842930 8.755421 0.991141 99 116 59
0.851909 8.848442 2.437680 169 179 168
0.859577 8.928492 -0.027617 159 108 54
0.859415 8.926758 0.317829 94 90 42
0.830608 15.853222 -0.505583 230 50 42
0.830777 15.856260 0.105131 229 50 42
0.913202 -6.497525 -0.578835 102 108 115
0.929849 -3.948884 -0.591214 235 235 229
0.923160 -2.536360 -0.565510 235 235 228
0.920119 -1.907605 -0.570243 234 235 228
0.921672 -1.392480 -0.558632 234 234 227
0.919231 -1.085842 -0.563321 234 234 227
0.910848 -0.834631 -0.566672 234 234 227
0.950192 -0.790261 -0.566719 234 234 227
0.891608 -0.573494 -0.559485 233 234 227
0.924949 -0.517982 -0.559579 233 234 227
0.953306 -0.464944 -0.559657 233 234 227
0.885893 -0.335617 -0.562429 233 234 227
0.904511 -0.280836 -0.562439 233 234 227
0.925751 -0.200976 -0.562521 233 234 227
0.939825 -0.119529 -0.562553 233 234 227
0.946690 -0.041302 -0.562606 233 234 227
0.946799 0.037235 -0.562606 233 234 227
0.939855 0.119600 -0.562569 233 234 227
0.925768 0.201048 -0.562536 233 234 227
0.904504 0.280903 -0.562449 233 234 227
0.885864 0.335675 -0.562432 233 234 227
0.953213 0.464971 -0.559642 233 234 227
0.924966 0.518064 -0.559608 233 234 227
0.891631 0.573581 -0.559519 233 234 227
0.950377 0.790496 -0.566825 234 234 227
0.910861 0.834727 -0.566714 234 234 227
0.919269 1.085979 -0.563383 228 228 221
0.921841 1.392850 -0.558758 234 234 228
0.920282 1.908099 -0.570392 234 234 228
0.923270 2.536885 -0.565665 234 235 228
0.929940 3.949718 -0.591428 235 235 229
0.937562 7.122472 -0.615025 218 162 150
0.898669 8.551353 1.303108 106 121 56
0.902382 8.586635 1.654020 114 126 77
0.904076 8.602693 2.008598 140 137 88
0.908988 8.649322 2.748926 105 115 63
0.917268 8.728376 0.988505 81 100 46
0.931900 8.867758 -0.028640 116 98 47
0.930790 8.857147 0.314242 134 127 69
0.930797 8.857157 0.658857 113 134 64
0.933847 8.885917 2.451178 118 132 93
0.953445 9.072825 -0.375600 188 121 117
0.886263 9.205734 -0.378015 211 164 151
0.969285 -15.845387 -0.505035 244 65 57
0.969476 -15.848322 0.105680 243 66 58
0.998358 -6.486220 -0.578910 102 108 115
0.999032 -3.933656 -0.591375 235 235 229
1.000820 -2.508565 -0.565751 234 235 228
0.995307 -1.871890 -0.570628 234 234 228
0.970664 -1.360826 -0.558935 234 234 227
1.006371 -1.335496 -0.559112 234 234 227
0.966399 -1.045445 -0.563509 234 234 227
1.006741 -1.006735 -0.563577 234 234 227
0.980681 -0.752495 -0.566846 234 234 227
1.022129 -0.695931 -0.566962 234 234 227
0.970864 -0.427173 -0.559703 233 234 227
0.996784 -0.362779 -0.559777 233 234 227
1.022351 -0.283503 -0.559841 233 234 227
1.036361 -0.229730 -0.559958 233 234 227
1.036357 0.229799 -0.559967 233 234 227
1.022367 0.283575 -0.559858 233 234 227
0.996849 0.362874 -0.559816 233 234 227
0.970879 0.427253 -0.559727 233 234 227
1.022192 0.696053 -0.567015 233 234 227
0.980685 0.752578 -0.566879 233 234 227
1.006791 1.006871 -0.563637 225 225 218
0.966511 1.045659 -0.563596 225 225 218
1.006207 1.335400 -0.559112 234 234 227
0.970810 1.361141 -0.559048 234 234 228
0.995497 1.872394 -0.570780 234 234 228
1.000952 2.509105 -0.565907 234 235 228
0.999149 3.934534 -0.591593 235 235 229
1.000294 7.118383 -0.615281 216 162 152
0.962954 8.452742 1.287194 102 105 53
0.982729 8.626362 0.975736 81 96 46
0.981891 8.618862 2.014864 111 119 74
0.993767 8.723343 0.306956 99 103 48
0.998961 8.768745 1.695150 115 127 76
1.003191 8.806021 0.654714 77 89 54
1.012633 8.888652 2.454529 131 148 67
1.034162 9.078020 -0.375870 179 174 167
1.033566 9.072737 -0.024514 100 105 66
0.969436 15.853817 -0.505748 230 50 42
0.969632 15.856855 0.105291 229 50 43
1.108114 -15.844766 -0.505201 244 65 57
1.108331 -15.847700 0.105841 243 66 58
1.082922 -6.471079 -0.578820 102 108 115
1.050781 -3.921532 -0.591501 235 235 229
1.102384 -3.908715 -0.591634 235 235 229
1.055856 -2.487443 -0.565927 234 235 228
1.088632 -2.474102 -0.566034 234 235 228
1.044773 -1.846637 -0.570890 234 234 228
1.085389 -1.824368 -0.571106 234 234 228
1.057531 -1.294345 -0.558934 234 234 227
1.103178 -1.257926 -0.559300 234 234 227
1.045801 -0.966727 -0.563635 234 234 227
1.087229 -0.920395 -0.563790 234 234 227
1.048927 -0.655432 -0.567024 233 234 227
1.081944 -0.599714 -0.567160 233 234 227
1.112191 -0.542433 -0.567191 233 234 227
1.044441 -0.188839 -0.559941 233 234 227
1.054171 -0.120080 -0.559862 233 234 227
1.060739 -0.041644 -0.560037 233 234 227
1.060855 0.037082 -0.560039 233 234 227
1.058486 0.083343 -0.560036 233 234 227
1.053673 0.124752 -0.559861 233 234 227
1.044413 0.188904 -0.559940 233 234 227
1.112343 0.542583 -0.567264 233 234 227
1.081932 0.599785 -0.567182 233 234 227
1.048991 0.655547 -0.567074 233 234 227
1.087337 0.920574 -0.563865 228 228 221
1.045591 0.966617 -0.563603 225 225 218
1.097795 1.262967 -0.559384 234 234 227
1.057801 1.294782 -0.559081 234 234 227
1.085593 1.824850 -0.571253 234 234 228
1.044975 1.847134 -0.571041 234 234 228
1.088785 2.474646 -0.566191 234 235 228
1.056001 2.487986 -0.566084 234 235 228
1.102545 3.909670 -0.591859 235 235 229
1.050919 3.922448 -0.591722 235 235 229
1.063011 7.113643 -0.615530 214 162 154
1.059041 8.626054 2.019001 87 100 54
1.067240 8.693008 0.644616 74 86 45
1.067728 8.696939 0.986579 92 97 68
1.069371 8.710101 2.775555 90 97 58
1.078830 8.787326 1.347656 76 86 40
1.075348 8.758918 1.694981 93 101 63
1.074044 8.748202 2.415283 93 100 70
1.088211 8.863865 0.315653 78 90 44
1.101893 8.975348 -0.026219 139 136 124
1.108424 15.854414 -0.505937 230 50 42
1.167161 -6.454302 -0.578705 102 108 115
1.170985 -3.890713 -0.591820 235 235 229
1.153652 -2.446078 -0.566248 234 235 228
1.157274 -1.782033 -0.571470 234 234 228
1.146507 -1.218777 -0.559335 234 234 227
1.183615 -1.183605 -0.559455 234 234 227
1.149358 -0.842732 -0.563974 234 234 227
1.189207 -0.787106 -0.564139 234 234 227
1.130647 -0.503380 -0.567277 233 234 227
1.157444 -0.438495 -0.567348 233 234 227
1.185584 -0.356794 -0.567464 233 234 227
1.198832 -0.310014 -0.567439 233 234 227
1.198745 0.310065 -0.567426 233 234 227
1.185646 0.356891 -0.567499 233 234 227
1.157470 0.438584 -0.567375 233 234 227
1.130540 0.503408 -0.567263 233 234 227
1.189114 0.787129 -0.564144 233 234 227
1.149406 0.842850 -0.564025 233 234 227
1.183891 1.183980 -0.559588 234 234 227
1.141133 1.223818 -0.559382 234 234 227
1.157464 1.782458 -0.571606 234 234 228
1.153816 2.446614 -0.566403 234 234 228
1.171178 3.891719 -0.592050 234 235 228
1.157041 7.105245 -0.615894 245 215 199
1.135828 8.628278 2.022037 105 123 60
1.140777 8.665995 0.983669 116 121 53
1.137885 8.643863 2.386960 112 132 65
1.154341 8.768946 1.699256 98 113 53
1.164469 8.846004 0.660434 74 84 44
1.159079 8.804983 1.352488 88 104 51
1.173311 8.913210 0.319098 94 109 51
1.187904 9.024108 -0.025082 120 99 51
1.194004 9.070486 -0.376104 169 161 157
1.247102 -15.844145 -0.505389 244 65 57
1.247344 -15.847075 0.106024 244 66 58
1.251130 -6.436320 -0.578577 102 108 115
1.239325 -3.871608 -0.592017 235 235 229
1.228655 -2.411359 -0.566493 234 235 228
1.271046 -2.390484 -0.566628 234 235 228
1.241723 -1.724888 -0.571575 234 234 228
1.224610 -1.141966 -0.559596 234 234 227
1.264273 -1.099002 -0.559735 234 234 227
1.215972 -0.745130 -0.564164 233 234 227
1.253508 -0.680576 -0.564252 233 234 227
1.276715 -0.636528 -0.564261 233 234 227
1.207646 -0.273231 -0.567452 233 234 227
1.222453 -0.199060 -0.567600 233 234 227
1.232720 -0.118666 -0.567543 233 234 227
1.237503 -0.043180 -0.567496 233 234 227
1.237603 0.037850 -0.567493 233 234 227
1.232689 0.118736 -0.567539 233 234 227
1.222430 0.199130 -0.567601 233 234 227
1.207747 0.273327 -0.567494 233 234 227
1.276496 0.636500 -0.564225 233 234 227
1.253523 0.680668 -0.564285 233 234 227
1.216031 0.745250 -0.564213 233 234 227
1.264542 1.099332 -0.559857 225 225 218
1.224594 1.142045 -0.559638 232 232 225
1.241509 1.724720 -0.571584 234 234 227
1.271214 2.390976 -0.566776 234 234 228
1.228824 2.411873 -0.566644 234 234 228
1.239553 3.872667 -0.592251 234 235 228
1.251012 7.095586 -0.616249 255 249 242
1.220123 8.682464 1.332704 117 136 74
1.226471 8.727674 0.993508 97 113 59
1.239675 8.821670 0.659085 109 129 58
1.240107 8.824591 2.075292 110 131 62
1.239316 8.818922 2.442487 103 115 75
1.273551 9.062842 -0.376166 185 141 140
1.279258 9.103225 1.773998 86 98 48
1.247591 15.855013 -0.506149 229 50 42
1.306928 -6.423577 -0.578485 102 108 115
1.307394 -3.851414 -0.592225 235 235 229
1.358266 -3.835590 -0.592388 235 235 229
1.322226 -2.361049 -0.566469 234 235 228
1.293277 -1.685427 -0.571376 234 234 228
1.330789 -1.658111 -0.571687 234 234 228
1.297504 -1.060098 -0.559817 234 234 227
1.337917 -1.010433 -0.560039 234 234 227
1.338944 -1.007455 -0.559864 234 234 227
1.295965 -0.597424 -0.564416 233 234 227
1.327947 -0.523062 -0.564487 233 234 227
1.351827 -0.458860 -0.564535 233 234 227
1.351705 0.458898 -0.564521 233 234 227
1.328028 0.523174 -0.564530 233 234 227
1.296061 0.597554 -0.564469 233 234 227
1.326339 1.025407 -0.560049 225 225 218
1.347010 0.996810 -0.559888 225 225 218
1.297491 1.060177 -0.559857 225 225 218
1.331167 1.658704 -0.571861 234 234 227
1.293688 1.686086 -0.571564 234 234 227
1.321302 2.359588 -0.566312 234 234 228
1.358559 3.836737 -0.592631 234 235 228
1.307659 3.852526 -0.592464 234 235 228
1.313604 7.088283 -0.616478 255 249 242
1.306421 8.742304 0.997021 98 112 96
1.309112 8.760273 1.348395 129 136 72
1.318590 8.823765 0.660376 96 107 48
1.325236 8.868058 2.460572 139 156 130
1.336014 8.940257 1.741112 95 107 71
1.337091 8.947421 2.109881 98 114 65
1.281494 9.119329 -0.023028 188 117 55
1.284722 9.142260 0.333069 77 95 44
1.386269 -15.843519 -0.505602 244 65 57
1.386537 -15.846453 0.106232 244 66 58
1.362583 -6.410279 -0.578389 102 108 115
1.418098 -6.396460 -0.578290 102 108 115
1.408949 -3.819080 -0.592557 235 235 229
1.370768 -2.327093 -0.565740 234 235 228
1.412166 -2.304424 -0.566006 234 235 228
1.382241 -1.618383 -0.572068 234 234 228
1.425075 -1.582693 -0.572316 234 234 227
1.364820 -0.973503 -0.560014 234 234 227
1.369541 -0.965672 -0.559860 234 234 227
1.399986 -0.923102 -0.560150 233 234 227
1.413747 -0.900639 -0.559966 233 234 227
1.434321 -0.870349 -0.560287 233 234 227
1.364772 -0.417228 -0.564411 233 234 227
1.382656 -0.357552 -0.564718 233 234 227
1.400412 -0.278531 -0.564628 233 234 227
1.414032 -0.198687 -0.564665 233 234 227
1.423876 -0.118280 -0.564871 233 234 227
1.428103 -0.043595 -0.564869 233 234 227
1.428217 0.037439 -0.564869 233 234 227
1.423873 0.118357 -0.564875 233 234 227
1.414202 0.198788 -0.564717 233 234 227
1.400324 0.278592 -0.564617 233 234 227
1.382621 0.357622 -0.564723 233 234 227
1.365100 0.417402 -0.564515 233 234 227
1.434199 0.870365 -0.560292 224 225 218
1.401826 0.920464 -0.560200 224 225 218
1.405816 0.913019 -0.559990 224 225 218
1.373833 0.962045 -0.560191 224 225 218
1.364009 0.973015 -0.559828 224 225 218
1.425280 1.583038 -0.572434 234 234 227
1.382546 1.618859 -0.572216 234 234 227
1.412626 2.305337 -0.566219 234 234 228
1.371211 2.328011 -0.565953 234 234 228
1.409271 3.820265 -0.592804 234 235 228
1.407402 7.076112 -0.616816 255 249 242
1.380983 8.719974 0.995567 92 105 82
1.396023 8.814905 1.360144 127 142 138
1.425928 9.003661 2.127523 135 148 152
1.473467 -6.382126 -0.578190 102 108 115
1.476265 -3.796166 -0.592792 235 235 229
1.483725 -2.263026 -0.566471 234 235 228
1.465040 -1.543830 -0.572071 234 234 227
1.505690 -1.505672 -0.572253 234 234 227
1.459808 -0.825898 -0.560207 233 234 227
1.498302 -0.755191 -0.560355 233 234 227
1.519964 -0.708748 -0.560149 233 234 227
1.498081 0.755168 -0.560332 225 226 219
1.459949 0.826061 -0.560275 224 225 218
1.506171 1.506265 -0.572432 234 234 227
1.464602 1.543464 -0.572020 234 234 227
1.484201 2.263909 -0.566680 234 234 228
1.476627 3.797396 -0.593044 234 235 228
1.501092 7.062706 -0.617145 255 249 241
1.457979 8.713293 0.996349 96 103 112
1.514883 9.053259 2.143672 165 180 189
1.491900 9.420248 1.848074 119 132 100
1.476228 16.876087 -0.526106 203 112 53
1.525639 -15.842897 -0.505837 244 65 57
1.525933 -15.845831 0.106462 244 66 58
1.556236 -6.359671 -0.578039 102 108 115
1.543250 -3.772163 -0.593038 235 235 228
1.593270 -3.753473 -0.593227 235 235 228
1.563969 -2.212935 -0.566982 234 234 228
1.552512 -1.460436 -0.572633 234 234 227
1.589853 -1.418992 -0.572538 234 234 227
1.539718 -0.669466 -0.560581 233 234 227
1.569479 -0.594594 -0.560460 233 234 227
1.593106 -0.533018 -0.560769 233 234 227
1.593052 0.533085 -0.560778 233 234 227
1.569664 0.594742 -0.560526 233 234 227
1.536657 0.676210 -0.560591 233 234 227
1.589065 1.418385 -0.572409 233 234 227
1.552799 1.460818 -0.572761 233 234 227
1.564436 2.213747 -0.567181 234 234 228
1.593703 3.754774 -0.593486 234 235 228
1.543652 3.773432 -0.593293 234 235 228
1.563465 7.052934 -0.617359 255 249 242
1.546986 9.245140 1.812862 200 202 202
1.665244 -15.842389 -0.506099 244 65 57
1.665564 -15.845321 0.106719 244 66 58
1.638700 -6.336233 -0.577887 102 108 115
1.643064 -3.734104 -0.593423 235 235 228
1.622983 -2.173419 -0.567338 234 234 228
1.661632 -2.146008 -0.567553 234 234 228
1.620645 -1.384138 -0.572593 234 234 227
1.657865 -1.342491 -0.572941 234 234 227
1.604234 -0.498099 -0.560737 233 234 227
1.619955 -0.441624 -0.560622 233 234 227
1.641627 -0.356386 -0.560795 233 234 227
1.657604 -0.277354 -0.560951 233 234 227
1.668748 -0.197474 -0.560910 233 234 227
1.676138 -0.117169 -0.560864 233 234 227
1.679368 -0.051269 -0.560838 233 234 227
1.679351 0.051352 -0.560836 233 234 227
1.676102 0.117250 -0.560861 233 234 227
1.668702 0.197552 -0.560908 233 234 227
1.657570 0.277432 -0.560955 233 234 227
1.641973 0.356550 -0.560885 233 234 227
1.619785 0.441663 -0.560602 233 234 227
1.604124 0.498150 -0.560732 233 234 227
1.663531 1.335221 -0.572965 233 234 227
1.621208 1.384728 -0.572778 233 234 227
1.662031 2.146669 -0.567727 234 234 227
1.623418 2.174150 -0.567524 234 234 228
1.643527 3.735428 -0.593684 234 235 228
1.625772 7.042569 -0.617570 254 249 242
1.604456 9.099967 2.159297 182 197 206
1.625047 9.216818 1.436046 181 194 207
1.694048 -6.322127 -0.577915 102 108 115
1.749645 -6.308872 -0.578022 102 108 115
1.725573 -3.700447 -0.593759 235 235 228
1.718446 -2.103244 -0.567826 234 234 228
1.691943 -1.298260 -0.572834 234 234 227
1.737073 -1.239022 -0.573037 234 234 227
1.680132 -0.014621 -0.560831 233 234 227
1.680159 0.007373 -0.560830 233 234 227
1.736916 1.239022 -0.573053 224 225 218
1.697798 1.291119 -0.572924 232 233 226
1.759483 2.060210 -0.566967 234 234 227
1.718759 2.103771 -0.567977 234 234 227
1.726083 3.701804 -0.594023 234 234 228
1.719077 7.025803 -0.617880 254 248 242
1.805085 -15.841778 -0.506383 244 65 57
1.805431 -15.844708 0.106998 244 66 58
1.805186 -6.295294 -0.578139 102 108 115
1.807486 -3.665174 -0.594104 235 235 228
1.797258 -2.031425 -0.567344 234 234 228
1.790465 -1.162707 -0.573247 233 234 227
1.829761 -1.099411 -0.573192 233 234 227
1.829292 1.099230 -0.573139 224 225 218
1.790843 1.163069 -0.573373 224 225 218
1.806206 2.023778 -0.567430 234 234 227
1.808041 3.666554 -0.594371 234 234 228
1.812215 7.007837 -0.618184 255 250 243
1.888385 -6.274264 -0.578334 102 108 115
1.872510 -3.635658 -0.594386 234 235 228
1.878317 -1.962077 -0.567860 234 234 228
1.853867 -1.059539 -0.573298 233 234 227
1.886586 -1.003093 -0.573568 233 234 227
1.915566 -0.944626 -0.573394 233 234 227
1.915123 0.944506 -0.573345 224 225 217
1.886381 1.003084 -0.573567 224 225 217
1.855352 1.060496 -0.573640 224 225 217
1.879033 1.962959 -0.568077 233 234 227
1.873097 3.637043 -0.594654 234 234 228
1.874187 6.995065 -0.618382 255 250 243
1.945193 -15.841161 -0.506690 244 65 57
1.945565 -15.844091 0.107301 244 66 58
1.971468 -6.252570 -0.578548 102 108 115
1.920989 -3.612817 -0.594600 234 235 228
1.969163 -3.589265 -0.594815 234 235 228
1.922617 -1.922595 -0.568218 234 234 228
1.965423 -1.881450 -0.568484 234 234 227
1.935903 -0.902687 -0.573436 233 234 227
1.968332 -0.835479 -0.573857 233 234 227
1.992509 -0.774814 -0.573755 233 234 227
1.992227 0.774801 -0.573732 224 225 217
1.968204 0.835523 -0.573866 224 225 217
1.936933 0.903263 -0.573670 224 225 217
1.965831 1.881972 -0.568634 233 234 227
1.923206 1.923316 -0.568406 233 234 227
1.969789 3.590644 -0.595082 234 234 228
1.921596 3.614201 -0.594868 234 234 228
1.966949 6.974729 -0.618676 255 249 242
2.026784 -6.237674 -0.578704 102 108 115
2.032967 -3.556910 -0.595101 234 235 228
2.036178 -1.801436 -0.568209 234 234 227
2.005161 -0.739712 -0.573650 233 234 227
2.026363 -0.677967 -0.573592 233 234 227
2.054653 -0.598842 -0.574173 233 234 227
2.071830 -0.535776 -0.574139 233 234 227
2.071715 0.535841 -0.574139 233 234 227
2.054610 0.598925 -0.574188 233 234 227
2.027019 0.678271 -0.573739 233 234 227
2.004812 0.739679 -0.573614 224 225 217
2.036029 1.801395 -0.568249 233 234 227
2.033611 3.558268 -0.595366 234 234 228
2.059496 6.953205 -0.618963 255 249 242
2.085591 -15.840548 -0.507022 244 65 57
2.085989 -15.843474 0.107627 244 66 58
2.109644 -6.214664 -0.578957 102 108 115
2.080482 -3.531918 -0.595314 234 235 228
2.127642 -3.506200 -0.595524 234 235 228
2.108541 -1.722710 -0.568761 234 234 227
2.147278 -1.677610 -0.569031 234 234 227
2.082772 -0.490391 -0.574088 233 234 227
2.094362 -0.435592 -0.574008 233 234 227
2.107603 -0.362115 -0.573888 233 234 227
2.119358 -0.278981 -0.573753 233 234 227
2.128060 -0.195500 -0.573635 233 234 227
2.138453 -0.121386 -0.574489 233 234 227
2.141431 -0.046681 -0.574498 233 234 227
2.141559 0.037428 -0.574500 233 234 227
2.138465 0.121480 -0.574495 233 234 227
2.129213 0.195682 -0.573845 233 234 227
2.119189 0.279052 -0.573734 233 234 227
2.107418 0.362177 -0.573869 233 234 227
2.094187 0.435650 -0.573994 233 234 227
2.082622 0.490450 -0.574080 233 234 227
2.152640 1.666863 -0.568769 233 234 227
2.109184 1.723362 -0.568941 233 234 227
2.128301 3.507510 -0.595783 234 234 228
2.081136 3.533257 -0.595576 234 234 228
2.121042 6.938062 -0.619151 255 249 242
2.226725 -15.842856 0.107978 244 66 58
2.226300 -15.839927 -0.507378 244 65 57
2.192391 -6.191001 -0.579230 102 108 115
2.205478 -3.461852 -0.595865 234 235 228
2.181210 -1.628766 -0.568687 234 234 227
2.223793 -1.571597 -0.568789 234 234 227
2.222556 1.570841 -0.568644 233 234 227
2.188632 1.619589 -0.568797 233 234 227
2.227520 2.368103 -0.513627 200 200 195
2.228932 2.369604 -0.387941 201 202 196
2.229760 2.370483 -0.262639 202 203 197
2.230490 2.371260 -0.137432 203 204 198
2.230835 2.371626 -0.011990 204 205 200
2.230603 2.371379 0.113968 206 206 201
2.210445 2.433697 -0.517156 216 216 210
2.211850 2.435244 -0.390056 217 217 211
2.212673 2.436150 -0.263344 217 218 211
2.213401 2.436952 -0.136728 218 218 212
2.213745 2.437329 -0.009874 141 143 145
2.213514 2.437075 0.117502 137 139 141
2.206130 3.463094 -0.596116 234 234 228
2.182470 6.922348 -0.619337 255 250 243
2.247480 -6.174781 -0.579424 102 108 115
2.302511 -6.158227 -0.579629 102 108 115
2.282362 -3.415752 -0.596189 234 235 228
2.251794 -1.533145 -0.568938 234 234 227
2.293626 -1.475281 -0.569353 234 234 227
2.293354 1.475227 -0.569366 233 234 227
2.254391 1.535049 -0.569424 233 234 227
2.311501 2.045257 -0.497744 199 200 195
2.309138 2.061133 -0.378814 201 201 196
2.309988 2.061892 -0.259595 202 203 197
2.310736 2.062560 -0.140468 203 204 198
2.311085 2.062872 -0.021118 204 205 199
2.310832 2.062646 0.098721 205 206 199
2.292312 2.119146 -0.501148 199 200 195
2.293756 2.120481 -0.380462 201 202 196
2.294602 2.121263 -0.260145 202 203 197
2.295348 2.121953 -0.139920 203 204 198
2.295698 2.122276 -0.019470 204 205 199
2.295448 2.122045 0.101474 205 206 200
2.272595 2.194860 -0.504788 199 200 195
2.274030 2.196245 -0.382643 201 202 196
2.274867 2.197054 -0.260872 202 203 197
2.275610 2.197772 -0.139194 203 204 198
2.275959 2.198109 -0.017288 204 205 199
2.275714 2.197873 0.105118 205 206 201
2.248343 2.288188 -0.509466 199 200 195
2.253872 2.273797 -0.384960 201 202 196
2.254704 2.274637 -0.261644 202 203 197
2.255440 2.275378 -0.138424 203 204 198
2.255790 2.275731 -0.014972 204 205 199
2.255551 2.275490 0.108988 205 206 201
2.241551 2.321314 -0.386423 201 202 196
2.242381 2.322173 -0.262132 202 203 197
2.243113 2.322931 -0.137937 203 204 198
2.243461 2.323292 -0.013509 204 205 200
2.243225 2.323047 0.111431 206 206 201
2.282992 3.416906 -0.596431 234 234 228
2.274354 6.897594 -0.619610 255 250 244
2.367795 -15.842231 0.108353 244 66 58
2.367344 -15.839306 -0.507758 244 65 57
2.357484 -6.141341 -0.579843 102 108 115
2.343048 -3.377445 -0.596431 234 235 228
2.388088 -3.347936 -0.596600 234 235 228
2.341980 -1.393310 -0.569082 233 234 227
2.385798 -1.322411 -0.569439 233 234 227
2.387913 1.323723 -0.569819 233 234 227
2.341230 1.392981 -0.569018 233 234 227
2.340506 1.964026 -0.494748 199 199 194
2.341784 1.965101 -0.376612 201 201 196
2.342447 1.965660 -0.258856 202 203 197
2.342956 1.966092 -0.141212 202 203 197
2.343111 1.966225 -0.023369 203 204 198
2.342653 1.965844 0.094937 205 206 200
2.320600 2.017374 -0.377638 201 202 196
2.321453 2.018115 -0.259203 202 203 197
2.322203 2.018767 -0.140859 203 204 198
2.322552 2.019072 -0.022295 204 205 199
2.322297 2.018849 0.096756 205 206 200
2.388642 3.348916 -0.596821 234 234 228
2.343640 3.378507 -0.596662 234 234 228
2.365971 6.871682 -0.619879 255 251 245
2.370058 15.859964 -0.508709 211 79 45
2.370522 15.863010 0.108203 175 123 53
2.439832 -6.115348 -0.580184 102 108 115
2.432623 -3.317634 -0.596755 234 235 228
2.458468 -3.262457 -0.593968 234 235 228
2.410802 -1.281812 -0.569783 233 234 227
2.432451 -1.239363 -0.569740 233 234 227
2.462998 -1.174758 -0.569582 233 234 227
2.462467 1.174618 -0.569547 233 234 227
2.432154 1.239326 -0.569742 233 234 227
2.410691 1.281868 -0.569815 233 234 227
2.434853 1.971809 -0.502241 199 200 194
2.435986 1.972726 -0.381087 190 191 185
2.436479 1.973126 -0.260343 191 192 187
2.436764 1.973358 -0.139734 192 193 188
2.436728 1.973329 -0.018942 193 194 189
2.436055 1.972784 0.102305 195 196 190
2.460089 3.264806 -0.594353 234 234 227
2.424103 3.306328 -0.595501 234 234 227
2.437308 4.397232 -0.103388 100 104 111
2.401828 4.423833 -0.103268 104 108 117
2.426857 6.853627 -0.620055 255 251 245
2.468261 20.104637 -0.589940 175 169 163
2.509223 -15.841610 0.108752 244 66 58
2.508747 -15.838688 -0.508162 244 65 57
2.522060 -6.088679 -0.580544 102 108 115
2.518426 -3.223371 -0.594510 234 235 228
2.482127 -1.131134 -0.569425 233 234 227
2.504359 -1.075930 -0.569171 233 234 227
2.543356 -1.001816 -0.570228 233 234 227
2.543364 1.001930 -0.570268 233 233 227
2.505846 1.076646 -0.569430 233 234 227
2.481466 1.130946 -0.569370 233 234 227
2.499989 1.988684 -0.508161 189 190 184
2.501148 1.989607 -0.384634 190 191 185
2.501651 1.990008 -0.261525 191 192 186
2.501940 1.990238 -0.138555 192 193 188
2.501901 1.990207 -0.015398 193 195 189
2.501206 1.989655 0.108223 215 217 212
2.520070 3.225671 -0.594891 234 234 227
2.513926 4.398543 -0.102644 57 61 62
2.528953 6.503589 -0.603153 255 249 242
2.517843 6.825275 -0.620307 255 250 244
2.511847 15.860635 -0.509139 232 51 42
2.512338 15.863679 0.108628 231 51 43
2.604144 -6.061174 -0.580929 102 108 115
2.607196 -3.162716 -0.595309 234 235 228
2.572553 -0.923603 -0.570208 233 234 227
2.598905 -0.844396 -0.570109 233 234 227
2.622275 -0.764286 -0.569949 233 234 227
2.637478 -0.706667 -0.569814 233 234 227
2.637043 0.706660 -0.569780 233 233 227
2.621881 0.764280 -0.569922 233 233 227
2.598596 0.844406 -0.570097 233 233 227
2.572378 0.923651 -0.570218 233 233 227
2.603269 2.015584 -0.517605 189 190 184
2.604471 2.016516 -0.390293 190 191 185
2.569702 2.007776 -0.262766 191 192 186
2.569995 2.008005 -0.137317 192 193 187
2.569952 2.007972 -0.011677 193 195 189
2.604512 2.016550 0.117664 239 240 237
2.608844 3.164905 -0.595680 234 234 227
2.590446 4.397908 -0.101918 59 62 63
2.620382 4.448737 -0.498294 221 222 215
2.618680 4.445844 -0.299327 205 151 147
2.617267 6.478307 -0.603673 254 248 241
2.651031 -15.840987 0.109176 244 66 58
2.650529 -15.838062 -0.508591 244 65 57
2.686109 -6.032991 -0.581333 102 108 115
2.665528 -3.120890 -0.595827 234 235 228
2.694371 -3.099476 -0.596079 234 235 228
2.645842 -0.671916 -0.569726 233 234 227
2.661096 -0.602105 -0.569543 233 234 227
2.683604 -0.521565 -0.570275 233 234 227
2.701614 -0.439939 -0.570743 233 234 227
2.713913 -0.357246 -0.570754 233 234 227
2.719792 -0.309833 -0.570753 233 234 227
2.719771 0.309937 -0.570762 233 233 227
2.713901 0.357351 -0.570766 233 233 227
2.701635 0.440050 -0.570763 233 233 227
2.686831 0.522329 -0.570741 233 233 227
2.660637 0.602110 -0.569502 233 233 227
2.645392 0.671910 -0.569688 233 233 227
2.712317 2.043982 -0.527626 188 190 184
2.713565 2.044922 -0.396297 190 191 185
2.677190 2.035694 -0.264735 191 192 186
2.677489 2.035922 -0.135353 192 193 187
2.677438 2.035884 -0.005777 193 194 189
2.695977 3.101511 -0.596434 234 234 227
2.667158 3.122986 -0.596188 234 234 227
2.668871 4.398250 -0.101139 61 64 65
2.689865 4.432878 -0.499571 144 145 143
2.690556 4.434006 -0.299843 132 104 101
2.700405 5.078959 -0.089467 222 190 139
2.701874 6.214189 -0.069793 222 188 138
2.674030 6.299933 -0.068490 182 158 125
2.682374 6.476159 -0.604983 254 246 238
2.673717 6.535623 -0.335941 220 178 165
2.654033 15.861260 -0.509593 232 51 42
2.654552 15.864305 0.109077 232 51 43
2.793243 -15.840362 0.109625 244 66 58
2.792714 -15.837437 -0.509045 244 65 57
2.740666 -6.013736 -0.581615 103 109 115
2.795166 -5.994146 -0.581906 103 109 115
2.737207 -3.066730 -0.596445 234 235 228
2.779599 -3.033356 -0.596798 234 235 228
2.723566 -0.274200 -0.570750 233 234 227
2.729643 -0.202797 -0.570743 233 234 227
2.734550 -0.119342 -0.570735 233 234 227
2.736695 -0.047717 -0.570730 233 233 227
2.736807 0.035881 -0.570730 233 233 227
2.734529 0.119448 -0.570736 233 233 227
2.729615 0.202902 -0.570747 233 233 227
2.723539 0.274304 -0.570757 233 233 227
2.788913 2.063791 -0.534690 188 190 184
2.790198 2.064742 -0.400530 190 191 185
2.790748 2.065149 -0.266824 191 192 186
2.791056 2.065379 -0.133269 192 193 187
2.791001 2.065338 0.000487 193 194 189
2.724582 3.079722 -0.596673 234 234 227
2.748428 4.398602 -0.100333 51 56 58
2.760166 5.302475 -0.085132 199 172 136
2.761393 5.419789 -0.083117 224 191 142
2.743445 6.463481 -0.605672 254 246 237
2.796646 15.861881 -0.510072 232 51 42
2.797192 15.864925 0.109551 232 51 43
2.849598 -5.974202 -0.582207 103 109 115
2.835158 -2.987571 -0.597235 234 235 228
2.869525 2.084936 -0.542168 188 189 184
2.870848 2.085897 -0.405010 189 191 185
2.871410 2.086307 -0.268317 191 192 186
2.871723 2.086535 -0.131779 192 193 187
2.871663 2.086491 0.004965 193 194 188
2.829454 4.398955 -0.099493 48 53 56
2.803256 6.447372 -0.606182 255 248 240
2.935327 -15.836813 -0.509524 244 65 56
2.935881 -15.839730 0.110099 244 66 58
2.931124 -5.943601 -0.582677 103 109 115
2.916637 -2.916578 -0.597817 234 234 228
2.952909 2.106394 -0.549907 188 189 184
2.954269 2.107365 -0.409647 189 191 185
2.954845 2.107775 -0.269863 191 192 186
2.955161 2.108002 -0.130237 192 193 187
2.955095 2.107955 0.009598 193 194 188
2.911716 4.399316 -0.098625 49 54 56
2.953493 4.462432 0.108979 198 167 122
2.900558 5.817885 -0.075085 194 165 125
2.909085 5.964782 -0.072481 223 189 138
2.917520 6.116990 -0.069776 214 183 138
2.926377 6.275928 -0.066942 224 193 145
2.943904 6.460111 -0.063587 225 203 165
2.900570 6.515096 -0.062965 222 188 137
2.939708 15.862504 -0.510576 232 51 42
2.940282 15.865551 0.110050 232 51 43
3.012516 -5.912293 -0.583166 103 109 116
2.995441 -2.842512 -0.598279 234 234 228
2.967411 4.399558 -0.098027 47 53 56
2.986839 4.399828 0.107052 131 126 124
3.021835 4.396983 0.314501 115 112 111
2.979109 4.416897 0.313770 184 148 104
3.009945 4.420934 0.524261 137 127 113
2.978308 4.499924 0.320384 181 140 94
3.009125 4.633845 0.119017 197 165 120
3.020867 4.651923 0.334892 187 155 111
3.009844 4.724710 0.123452 190 150 105
3.020758 4.741839 0.342179 180 139 93
3.010584 4.818148 0.128037 200 171 130
3.020631 4.834224 0.349707 190 125 83
3.011356 4.914297 0.132781 200 171 131
3.020494 4.929207 0.357488 213 56 45
3.012151 5.013276 0.137690 202 175 136
3.019740 5.025904 0.365423 52 64 59
3.012972 5.115233 0.142774 195 158 110
3.013033 5.218951 0.147949 201 175 138
3.014560 5.328447 0.153481 202 176 139
3.034930 5.708117 0.423422 185 151 108
3.021620 5.804729 0.431070 186 154 111
3.017868 5.923156 0.441057 185 153 111
3.017521 6.052474 0.452178 184 151 107
3.019132 6.190413 0.197669 215 53 47
3.017166 6.186378 0.463744 184 150 106
3.011995 6.315062 0.203972 69 70 72
3.016797 6.325124 0.475780 162 132 99
3.015559 6.467179 0.212004 77 80 87
3.021113 6.479083 0.489386 65 83 104
2.972855 6.523631 0.213932 231 51 42
2.982611 6.545035 0.493608 155 168 176
3.003250 6.667446 -0.622492 206 202 196
3.078390 -15.836180 -0.510028 244 65 56
3.078972 -15.839103 0.110598 245 66 58
3.066685 -5.890947 -0.583504 103 109 116
3.058932 -2.754314 -0.597004 234 234 228
3.104898 -2.699002 -0.596781 234 234 228
3.041247 2.129609 -0.558159 188 189 184
3.042647 2.130589 -0.414592 189 191 185
3.043234 2.131001 -0.271511 191 192 186
3.043554 2.131226 -0.128593 192 193 187
3.043480 2.131175 0.014539 193 194 188
3.080291 4.399295 0.317897 49 56 62
3.082455 4.402384 0.527766 81 82 84
3.089419 6.129557 -0.596579 219 213 206
3.085217 6.616582 -0.621790 254 246 238
3.083246 15.863129 -0.511105 232 51 42
3.083847 15.866177 0.110574 232 51 43
3.147801 -5.858214 -0.584029 103 109 116
3.143860 -2.661419 -0.597279 234 234 228
3.182176 -2.623137 -0.597745 234 234 228
3.133114 2.153434 -0.566752 188 189 183
3.134163 2.154156 -0.419713 189 190 184
3.134763 2.154569 -0.273218 190 192 186
3.135086 2.154792 -0.126890 192 193 187
3.135005 2.154737 0.019656 193 194 188
3.172621 6.094826 -0.596982 230 230 223
3.143855 6.591537 -0.621927 254 247 239
3.221928 -15.835546 -0.510557 244 65 56
3.222535 -15.838469 0.111122 245 66 58
3.228772 -5.824759 -0.584572 103 109 116
3.219619 -2.583964 -0.598168 234 234 228
3.256310 -2.544062 -0.598551 234 234 228
3.229908 2.178705 -0.575843 188 189 183
3.231388 2.179705 -0.425187 189 190 184
3.232005 2.180122 -0.275042 190 191 186
3.232330 2.180342 -0.125070 192 193 187
3.232242 2.180283 0.025126 193 194 188
3.227907 6.071081 -0.597256 222 223 216
3.202239 6.565866 -0.622057 243 217 204
3.227283 15.863758 -0.511660 232 51 42
3.227912 15.866806 0.111124 232 51 43
3.309546 -5.790377 -0.585135 103 109 116
3.291977 -2.503225 -0.598876 234 234 228
3.338036 -2.447497 -0.599221 234 234 228
3.330874 2.204763 -0.585338 196 197 191
3.332397 2.205771 -0.430876 189 190 184
3.333029 2.206191 -0.276939 190 191 185
3.333359 2.206410 -0.123178 192 193 187
3.333260 2.206346 0.030811 193 194 188
3.310546 6.034571 -0.597673 222 223 216
3.365965 -15.834913 -0.511112 244 65 56
3.366600 -15.837833 0.111672 245 66 58
3.390165 -5.755262 -0.585717 103 109 116
3.371224 -2.404623 -0.599390 234 234 228
3.401636 -2.359752 -0.599304 234 234 228
3.431512 -2.314536 -0.599217 234 234 228
3.422603 2.222770 -0.593692 224 225 218
3.439802 2.233940 -0.436959 189 190 184
3.392887 5.997165 -0.598098 222 223 216
3.371845 15.864391 -0.512241 232 51 42
3.372502 15.867440 0.111700 233 52 43
3.510526 -15.834280 -0.511692 244 65 56
3.511188 -15.837202 0.112248 245 66 58
3.470575 -5.719206 -0.586318 57 60 64
3.460173 -2.268543 -0.599068 234 234 228
3.496829 -2.206290 -0.598795 234 234 228
3.478063 2.194549 -0.596734 224 225 218
3.440454 2.234365 -0.278966 190 191 185
3.440786 2.234581 -0.121155 191 193 187
3.440677 2.234511 0.036889 193 194 188
3.447572 5.971624 -0.598385 223 223 216
3.516956 15.865029 -0.512847 232 51 42
3.517640 15.868076 0.112301 233 52 43
3.550810 -5.682389 -0.586936 57 60 64
3.540051 -2.127041 -0.598345 234 234 228
3.580802 -2.046552 -0.597806 234 234 228
3.570756 2.061678 -0.597758 224 225 218
3.538142 2.126048 -0.598210 224 225 218
3.552031 2.263000 -0.443321 189 190 184
3.552703 2.263430 -0.281087 190 191 185
3.553035 2.263643 -0.119040 191 193 187
3.552916 2.263568 0.043247 193 194 188
3.655637 -15.833642 -0.512299 244 65 56
3.656324 -15.836561 0.112849 245 66 58
3.630811 -5.644605 -0.587573 144 146 145
3.629859 -2.012013 -0.600293 234 234 228
3.656152 -1.964469 -0.600328 234 234 228
3.656089 1.964587 -0.600394 224 225 218
3.621072 2.027997 -0.600375 224 225 218
3.669813 2.293262 -0.450009 188 190 184
3.670505 2.293695 -0.283316 190 191 185
3.670838 2.293904 -0.116815 191 192 187
3.670707 2.293824 0.049931 193 194 188
3.662639 15.865661 -0.513480 232 51 42
3.663352 15.868712 0.112929 233 52 43
3.710618 -5.606039 -0.588225 233 234 227
3.697767 -1.884057 -0.600296 234 234 227
3.736916 -1.802423 -0.600177 234 234 227
3.759181 -1.752882 -0.600067 234 234 227
3.758287 1.752612 -0.600037 233 234 227
3.736178 1.802216 -0.600165 224 225 218
3.697341 1.883990 -0.600320 224 225 218
3.718399 5.836955 -0.599853 60 62 64
3.686703 5.900198 -0.601966 70 71 69
3.801320 -15.833000 -0.512932 244 65 56
3.802035 -15.835917 0.113477 245 66 58
3.790158 -5.566469 -0.588894 233 234 227
3.780464 -1.702924 -0.599931 234 234 227
3.807573 -1.635811 -0.599719 234 234 227
3.833208 -1.568156 -0.599477 234 234 227
3.831892 1.567762 -0.599398 233 234 227
3.806388 1.635448 -0.599655 233 234 227
3.779434 1.702607 -0.599885 233 234 227
3.796777 2.326777 -0.457267 188 189 183
3.797485 2.327212 -0.285735 190 191 185
3.797823 2.327420 -0.114402 191 192 187
3.797679 2.327333 0.057182 193 194 188
3.762451 3.046910 2.325165 179 187 206
3.798699 5.794191 -0.600300 223 224 216
3.808924 15.866304 -0.514140 232 51 42
3.809664 15.869354 0.113583 233 52 43
3.869479 -5.526096 -0.589577 233 234 227
3.863173 -1.482887 -0.599141 234 234 227
3.891135 -1.397008 -0.598781 234 234 227
3.911954 -1.327877 -0.598480 234 234 227
3.905360 1.344810 -0.598448 233 234 227
3.889615 1.396605 -0.598677 233 234 227
3.861738 1.482481 -0.599048 233 234 227
3.878572 5.750447 -0.600748 223 224 217
3.947605 -15.832360 -0.513591 244 65 56
3.948346 -15.835279 0.114131 245 66 58
3.948501 -5.484691 -0.590275 234 234 227
3.958435 -1.286116 -0.601463 234 234 227
3.975260 -1.234293 -0.601501 234 234 227
3.991347 -1.182233 -0.601526 234 234 227
3.991378 1.182384 -0.601573 233 234 227
3.975380 1.234473 -0.601559 233 234 227
3.952833 1.303534 -0.601520 233 234 227
3.929095 2.360948 -0.464827 188 189 183
3.929819 2.361385 -0.288255 189 191 185
3.930163 2.361593 -0.111888 191 192 186
3.930005 2.361499 0.064737 193 194 188
3.993206 2.668354 2.304973 69 80 68
3.982020 2.762552 2.327803 62 71 66
3.955546 2.874009 2.350175 141 151 163
3.938777 3.022468 2.389500 168 179 197
3.962631 3.096086 2.422845 176 186 205
3.945513 3.138543 2.429543 177 186 206
3.961165 3.892779 2.430185 156 168 187
3.957897 5.705488 -0.601196 233 233 226
3.955834 15.866947 -0.514826 232 51 42
3.956604 15.869997 0.114265 233 52 43
4.027267 -5.442447 -0.590985 234 234 227
4.001588 -1.147378 -0.601534 234 234 227
4.020875 -1.077332 -0.601534 234 234 227
4.043244 -0.989316 -0.601511 234 234 227
4.059547 -0.918522 -0.601479 233 234 227
4.074512 -0.847439 -0.601436 233 234 227
4.074232 0.847521 -0.601440 233 234 227
4.059299 0.918606 -0.601488 233 234 227
4.043049 0.989410 -0.601529 233 234 227
4.020765 1.077444 -0.601562 233 234 227
4.001563 1.147513 -0.601574 233 234 227
4.069345 1.790738 2.340994 147 163 169
4.056238 1.848640 0.229881 230 221 203
4.068741 2.396783 -0.472820 188 189 183
4.069482 2.397220 -0.290919 189 190 185
4.069833 2.397428 -0.109230 191 192 186
4.069658 2.397327 0.072724 193 194 188
4.036743 5.659525 -0.601641 233 233 226
4.094516 -15.831714 -0.514278 244 65 56
4.095284 -15.834632 0.114812 245 66 57
4.116794 -5.413670 -0.592764 234 234 227
4.091314 -0.758220 -0.601374 233 234 227
4.106245 -0.668683 -0.601307 233 234 227
4.116719 -0.596833 -0.601253 233 234 227
4.125952 -0.524824 -0.601200 233 234 227
4.133961 -0.452678 -0.601151 233 234 227
4.142200 -0.362331 -0.601096 233 234 227
4.148695 -0.271854 -0.601050 233 234 227
4.152498 -0.199392 -0.601022 233 234 227
4.155119 -0.126883 -0.601001 233 234 227
4.156565 -0.054344 -0.600989 233 234 227
4.156655 0.036344 -0.600987 233 234 227
4.155037 0.127018 -0.600998 233 234 227
4.152366 0.199524 -0.601016 233 234 227
4.148521 0.271981 -0.601044 233 234 227
4.141979 0.362450 -0.601088 233 234 227
4.133698 0.452788 -0.601142 233 234 227
4.125666 0.524927 -0.601192 233 234 227
4.116415 0.596928 -0.601246 233 234 227
4.105935 0.668771 -0.601302 233 234 227
4.091009 0.758304 -0.601372 233 234 227
4.123069 1.966706 -0.287932 235 235 229
4.140941 5.596376 -0.602229 233 233 227
4.088973 5.628206 -0.601936 233 233 227
4.103398 15.867594 -0.515539 232 51 42
4.104196 15.870646 0.114973 233 52 43
4.212038 -5.391071 -0.595087 234 234 228
4.179733 0.812577 2.233575 114 133 164
4.172859 1.728578 2.155809 170 178 69
4.182690 1.797209 2.174471 150 165 156
4.221025 2.437121 -0.481595 187 189 183
4.221782 2.437560 -0.293844 189 190 184
4.222137 2.437767 -0.106312 191 192 186
4.221945 2.437657 0.081492 192 194 188
4.192636 5.564027 -0.602518 233 233 227
4.242078 -15.831064 -0.514991 244 65 56
4.242874 -15.833985 0.115520 245 66 57
4.275219 -5.374595 -0.596600 234 234 228
4.252540 0.788282 2.271867 119 136 169
4.291068 1.777542 1.999664 162 171 64
4.299153 1.825006 2.011888 143 160 183
4.295157 5.497758 -0.603087 233 232 227
4.244048 5.531161 -0.602805 233 232 227
4.251640 15.868240 -0.516280 232 51 42
4.252466 15.871294 0.115708 233 52 43
4.390321 -15.830416 -0.515731 244 64 56
4.391143 -15.833330 0.116256 245 66 57
4.338083 -5.356993 -0.598081 234 234 228
4.327148 0.763115 2.311267 90 104 123
4.379936 2.478162 -0.490743 187 188 183
4.380712 2.478602 -0.296893 189 190 184
4.381073 2.478808 -0.103270 191 192 186
