ply
format ascii 1.0
comment frame_id glim_map
comment stamp 286.600000000
element vertex 1217
property float x
property float y
property float z
property uchar red
property uchar green
property uchar blue
end_header
-2.672678 8.457917 -0.030046 209 190 158
-2.679579 8.458172 0.311607 151 94 46
-2.700552 8.546972 1.365849 100 108 72
-2.697586 8.538204 2.084896 130 143 117
-2.647566 8.616986 0.319781 208 189 157
-2.643378 8.627994 2.476030 98 110 65
-2.662390 8.688910 1.387522 120 146 68
-2.702956 8.796416 -0.023753 213 193 162
-2.567511 5.763828 -0.078969 227 200 155
-2.571488 5.910462 -0.076376 225 194 143
-2.590446 6.405262 -0.599246 254 245 235
-2.576568 6.534332 -0.065332 144 122 93
-2.596818 8.475047 0.653999 107 119 58
-2.583311 8.432292 2.050371 93 106 62
-2.604892 8.502190 1.708255 115 133 67
-2.634953 8.577001 0.664421 113 134 59
-2.627930 8.576529 1.013774 102 117 54
-2.596560 8.746218 2.128037 85 93 55
-2.483499 4.672085 -0.098437 61 66 69
-2.489372 4.782976 -0.096511 183 162 132
-2.495703 4.898635 -0.094491 225 192 141
-2.502370 5.019090 -0.092379 230 207 167
-2.509091 5.144050 -0.090182 225 195 144
-2.516691 5.275495 -0.087857 223 188 133
-2.521852 5.531802 -0.083380 229 203 160
-2.511510 8.458630 -0.370253 192 177 154
-2.511910 8.460263 -0.030947 209 191 162
-2.511942 8.460664 0.308915 200 183 154
-2.509670 8.453629 0.993191 96 93 50
-2.528147 8.515947 1.351771 113 135 66
-2.557274 8.591017 1.365752 119 145 67
-2.498919 8.671026 2.475933 104 123 65
-2.525754 8.786297 0.327151 88 95 69
-2.552376 8.878266 -0.023055 222 203 173
-2.443695 8.479481 1.693653 76 82 55
-2.454899 8.517247 0.653895 84 99 53
-2.467077 8.583506 1.008422 70 76 45
-2.468042 8.587803 2.079978 79 88 49
-2.402591 8.618912 2.453263 105 121 64
-2.421047 8.683201 0.668369 57 72 33
-2.450100 8.788342 2.127911 89 97 49
-2.451359 8.817703 1.763929 88 91 53
-2.407756 8.935285 0.691496 83 98 46
-2.402608 8.917979 2.538794 78 94 36
-2.409182 8.968289 2.169461 111 127 68
-2.347569 4.417325 -0.296343 200 142 138
-2.352349 8.460959 -0.369483 240 201 181
-2.352726 8.462616 -0.031788 222 203 173
-2.352756 8.463032 0.306462 208 192 163
-2.368196 8.494581 0.993114 70 76 45
-2.385560 8.557014 1.351665 103 103 55
-2.333136 8.659990 1.366568 88 98 56
-2.353208 8.758995 0.322919 78 85 45
-2.351403 8.752962 1.026271 93 105 48
-2.353873 8.762800 1.747005 100 115 56
-2.377423 8.848461 -0.024546 92 85 38
-2.334115 9.000734 1.424197 87 110 41
-2.341765 9.031227 2.566613 106 121 105
-2.330864 18.683575 -0.563911 221 208 176
-2.312665 3.187949 -0.579839 235 235 229
-2.252386 8.687443 2.089885 197 202 224
-2.310463 8.909168 0.686633 108 127 67
-2.246616 8.956829 1.049365 92 112 57
-2.252038 9.007268 1.792251 171 183 179
-2.259043 9.007266 2.169338 183 185 198
-2.291723 10.297233 0.001928 222 176 150
-2.194649 8.463284 -0.368771 225 205 179
-2.194992 8.464925 -0.032570 218 194 165
-2.195013 8.465330 0.304183 210 195 162
-2.195950 8.783434 1.381403 93 103 88
-2.212811 8.849892 0.678746 76 92 48
-2.194665 9.113450 0.702974 85 97 96
-2.150919 8.933245 1.404922 100 114 105
-2.110465 9.112365 0.700980 101 107 110
-2.122113 9.164473 2.589346 175 187 207
-2.038223 8.466003 0.301981 219 126 107
-1.967361 13.892509 -0.471160 217 197 168
-1.967618 13.895220 0.068434 225 206 176
-1.919401 -2.658805 -0.516565 200 201 196
-1.890153 7.852912 -0.355953 227 210 183
-1.893216 7.865903 -0.045153 218 140 118
-1.883159 8.467859 -0.367518 234 215 194
-1.884486 8.474543 0.300415 221 189 160
-1.729157 8.470151 -0.366975 232 212 190
-1.729414 8.471807 -0.034574 224 194 167
-1.729417 8.472218 0.298373 223 164 140
-1.678275 -2.505441 -0.491202 201 202 197
-1.679344 -2.507060 -0.374282 202 203 198
-1.679970 -2.508016 -0.257716 202 203 198
-1.672644 3.592957 -0.582249 236 236 230
-1.620100 9.150106 1.056992 181 191 204
-1.641878 9.274027 2.202763 187 195 207
-1.609689 15.153707 -0.494617 191 54 16
-1.523599 -2.405341 -0.475004 202 203 198
-1.525680 -2.408745 0.076343 205 206 200
-1.576150 8.472315 -0.366484 232 211 190
-1.576384 8.473999 -0.035133 220 189 160
-1.576386 8.474440 0.296765 220 145 122
-1.546877 9.203223 1.062362 166 175 190
-1.552843 9.239061 1.436136 191 198 207
-1.500380 8.475536 -0.366300 251 227 216
-1.499753 8.472464 -0.035443 222 33 27
-1.499074 8.469105 0.295643 220 124 106
-1.440960 9.014736 1.758550 200 206 207
-1.447778 9.098524 0.687219 117 126 136
-1.476201 9.277258 1.440528 190 199 207
-1.428439 -2.345143 -0.465252 202 203 198
-1.429336 -2.346637 -0.358761 203 204 199
-1.429857 -2.347517 -0.252593 203 204 199
-1.426265 -2.345690 -0.146588 204 205 200
-1.426473 -2.346058 -0.040464 204 205 200
-1.426308 -2.345814 0.066097 205 206 201
-1.408752 -2.335764 0.171071 205 206 201
-1.408281 -2.335011 0.278720 206 207 202
-1.424803 8.478853 -0.366132 236 216 195
-1.424383 8.476840 -0.035625 223 24 21
-1.423881 8.474337 0.295182 225 205 175
-1.415355 8.424360 0.622623 149 158 168
-1.369435 9.118448 1.047198 100 111 112
-1.374490 9.151343 0.691144 148 153 158
-1.342370 -2.293631 0.161543 197 198 192
-1.299705 8.658525 2.033486 185 194 206
-1.285894 9.102192 1.043361 114 125 133
-1.288516 9.121244 1.408633 189 197 207
-1.305735 9.240561 0.337747 221 204 174
-1.243276 8.239961 -0.361049 254 244 233
-1.239145 8.254436 -0.040427 223 104 88
-1.204456 9.047492 1.393844 162 173 180
-1.235308 9.329558 1.072893 117 136 71
-1.242483 17.471039 -0.538750 112 106 58
-1.122286 8.479070 -0.365333 248 221 206
-1.128712 8.479906 -0.036480 224 82 70
-1.136143 8.535927 0.296084 219 200 171
-1.160940 8.773376 2.057489 194 201 202
-1.159287 8.761616 2.420096 202 205 207
-1.171466 8.851732 1.715452 168 182 202
-1.129354 9.141365 0.330694 224 206 176
-1.144349 9.261208 -0.021633 219 198 167
-1.119128 -2.539691 -0.468091 194 196 190
-1.119583 -2.540760 -0.360446 195 196 191
-1.119742 -2.541161 -0.253174 195 197 191
-1.119794 -2.541319 -0.146031 195 197 191
-1.119709 -2.541167 -0.038735 196 197 192
-1.119328 -2.540347 0.068957 196 197 192
-1.119960 -2.541816 0.177723 197 198 192
-1.119331 -2.540435 0.287208 197 198 193
-1.087191 8.803758 0.999732 71 83 74
-1.097175 8.883360 0.661857 107 127 73
-1.105088 8.948313 1.374407 126 143 112
-1.103062 8.932701 1.730795 136 159 115
-1.047590 9.073253 -0.376579 200 161 145
-1.025225 -2.690100 -0.478054 194 196 190
-1.025374 -2.690745 0.078917 196 197 192
-0.980648 8.498448 -0.036578 219 198 167
-0.980617 8.498837 0.292813 223 205 174
-1.015666 8.859470 1.357115 117 143 69
-0.963116 9.033496 -0.026394 155 92 36
-0.967755 9.077415 0.325927 81 106 16
-0.919771 -6.264802 -0.565311 104 110 116
-0.954669 -2.802330 0.319372 197 198 193
-0.935621 8.843092 1.707524 120 140 63
-0.946184 8.942908 2.093871 120 140 78
-0.940897 8.894155 2.451363 165 171 166
-0.951222 8.986984 0.670125 121 137 63
-0.879276 -2.917796 -0.494286 227 228 219
-0.879617 -2.918995 -0.376140 228 228 221
-0.879726 -2.919426 -0.258406 236 236 229
-0.879749 -2.919573 -0.140816 235 235 229
-0.879666 -2.919369 -0.023060 101 107 114
-0.879350 -2.918399 0.095128 89 94 101
-0.879828 -2.920050 0.214491 237 62 55
-0.822967 8.483473 -0.364823 200 180 151
-0.836617 8.558337 -0.035768 187 83 36
-0.835666 8.549472 0.294788 73 83 38
-0.874660 8.945591 0.665335 120 136 62
-0.780178 8.843412 0.654715 105 111 54
-0.776069 8.801895 2.419324 112 107 54
-0.783451 8.882896 1.712808 106 110 62
-0.720486 8.989082 2.473240 132 155 71
-0.727685 9.074806 1.389575 67 79 41
-0.721851 9.087454 1.755426 64 74 32
-0.729855 9.184027 0.686989 90 98 66
-0.719766 -2.551538 -0.559779 235 235 229
-0.692642 8.718663 -0.032936 224 205 175
-0.691894 8.710315 0.303304 224 206 175
-0.694038 8.735084 -0.369482 222 205 174
-0.710978 8.949947 1.014145 91 95 65
-0.642559 9.089779 0.677279 94 102 49
-0.646675 9.149631 1.401509 94 112 58
-0.649444 9.191965 2.531620 119 131 67
-0.655412 9.267182 -0.022544 97 97 29
-0.664743 9.398767 0.342746 148 146 109
-0.650344 14.292431 -0.476788 222 155 129
-0.650347 14.295218 0.073399 219 200 169
-0.560598 8.951723 2.087682 89 99 66
-0.567444 9.060946 2.491193 79 89 78
-0.576355 9.194892 0.686884 94 102 49
-0.525378 8.487820 -0.364515 224 207 178
-0.525407 8.489482 -0.037572 226 206 176
-0.525359 8.489899 0.289909 223 205 174
-0.486886 9.034733 1.740688 98 112 52
-0.488836 9.198404 2.530505 164 171 164
-0.492088 9.250865 0.691824 83 98 49
-0.409288 9.065214 1.746319 98 112 52
-0.408300 9.184718 0.329508 220 199 168
-0.408827 9.205465 2.150206 115 137 86
-0.339408 9.502141 1.460048 193 200 203
-0.338571 12.440880 -0.440833 209 188 158
-0.338532 12.443319 0.037729 220 198 167
-0.354409 18.964626 -0.567060 221 67 55
-0.354317 18.968338 0.162419 224 131 111
-0.291931 8.195261 0.272226 227 23 20
-0.252554 9.367752 2.190107 192 202 206
-0.227153 -2.079688 -0.566767 235 235 228
-0.202892 5.754491 -0.311439 254 244 236
-0.086932 8.494310 -0.364421 222 204 175
-0.086877 8.495956 -0.037851 225 206 176
-0.086809 8.496365 0.289255 224 206 175
0.135497 8.496499 0.289181 224 225 192
0.144179 8.657114 -0.367639 220 201 169
0.144015 8.642178 -0.035102 222 203 172
0.125720 16.678879 -0.522871 219 199 167
0.125884 16.682077 0.118557 225 217 185
0.307603 9.020780 0.668665 70 81 85
0.306137 8.972209 1.367085 186 198 207
0.317940 9.535750 1.846221 199 207 204
0.383218 8.941918 1.362288 182 193 201
0.390604 9.119282 1.034003 79 88 92
0.395539 9.398480 1.817377 193 203 206
0.396747 15.862805 -0.507221 220 200 170
0.396957 15.865904 0.102982 215 195 164
0.447536 -15.838871 -0.503217 243 65 57
0.447851 8.674575 1.662671 194 201 206
0.464733 9.012639 0.319525 229 50 43
0.464666 9.008341 1.019456 89 99 101
0.466557 9.039392 2.482606 204 207 207
0.476555 9.374515 2.193748 200 207 207
0.524084 8.683030 0.975934 111 122 114
0.527176 8.732430 1.675990 202 205 206
0.533954 8.844880 2.059562 202 207 207
0.537101 8.900261 1.356350 169 180 195
0.536451 8.885460 2.438145 192 205 205
0.541343 8.976479 -0.028515 230 50 42
0.546562 9.062864 0.322657 229 50 43
0.546424 9.059280 0.673385 77 84 99
0.586120 -15.839700 0.106587 243 66 58
0.601943 8.706520 2.025415 162 170 167
0.607399 8.789617 0.991029 114 130 114
0.604750 8.748688 1.680518 166 173 156
0.611543 8.849176 1.348257 149 163 156
0.610784 8.834713 2.424513 195 206 207
0.616946 8.930411 0.661415 105 125 64
0.668940 8.587479 1.303372 137 150 132
0.669036 8.673192 0.975859 113 129 113
0.699583 8.987725 0.318905 197 86 46
0.701201 9.007758 0.669416 117 137 60
0.724539 -15.837656 0.106625 243 66 58
0.739091 8.524867 1.981851 126 142 92
0.753388 8.692991 1.322925 110 117 101
0.751045 8.664861 1.664961 102 118 62
0.754111 8.778249 0.990936 108 126 61
0.762874 8.805119 0.650430 107 121 60
0.774556 8.942835 -0.028883 160 109 55
0.774483 8.941135 0.316563 94 90 42
0.798307 9.220304 -0.379314 212 165 152
0.863032 -15.835608 0.106687 243 66 58
0.876836 8.468962 1.285961 103 106 54
0.821232 8.601610 1.652780 114 126 77
0.822832 8.617722 2.007356 141 138 89
0.827413 8.664476 2.747678 106 116 64
0.846572 8.872265 0.312968 135 128 70
0.846649 8.872309 0.657584 114 135 65
0.849767 8.901282 2.449901 118 132 94
0.866859 9.088097 -0.376900 189 121 117
0.901026 8.642096 0.974475 81 96 46
0.910926 8.739118 0.305684 100 104 49
0.915933 8.784712 1.693872 116 128 77
0.947047 9.088869 -0.025830 100 105 66
0.984776 8.709577 0.643331 75 87 46
0.985294 8.713549 0.985294 92 97 69
0.977549 8.642681 2.017725 87 100 54
0.991371 8.765020 2.413991 93 100 71
0.987165 8.726908 2.774269 90 97 59
0.995536 8.804080 1.346360 76 86 40
1.003916 8.880608 0.314347 78 90 44
1.016376 8.992189 -0.027539 140 137 125
1.054310 8.645699 2.020745 105 123 60
1.056281 8.661342 2.385665 113 133 65
1.066794 8.805487 0.653355 74 86 45
1.075599 8.822567 1.351173 88 104 51
1.088502 8.930828 0.317770 95 110 52
1.099281 9.077063 -0.377278 152 149 140
1.098710 9.071722 -0.025922 139 136 124
1.137900 8.700682 1.331389 117 137 75
1.143712 8.745921 0.992188 97 113 59
1.156567 8.843083 2.073959 111 132 63
1.155910 8.837445 2.441154 103 115 75
1.194481 9.138018 -0.024399 188 118 56
1.197545 9.161019 0.331694 77 95 44
1.192778 9.122077 1.772628 86 98 48
1.226085 8.779408 1.347054 129 136 72
1.241322 8.887467 2.459217 139 156 130
1.244570 8.960621 1.739755 95 107 71
1.252285 8.966913 2.108516 98 114 65
1.312429 8.834933 1.358780 127 142 138
1.340540 9.024070 2.126133 135 148 152
1.309006 16.896320 -0.528297 204 113 54
1.428982 9.074584 2.142259 165 180 189
1.402150 9.441287 1.846630 119 132 100
1.518070 9.122217 2.157861 182 197 207
1.459034 9.266754 1.811423 200 202 202
1.521555 0.731280 -0.561201 233 234 227
1.537307 9.239199 1.434594 181 194 207
2.232528 2.314301 -0.510196 200 199 195
2.234713 2.312978 -0.386153 201 202 196
2.186061 2.480516 -0.518958 234 234 227
2.189308 2.480482 -0.391495 234 234 227
2.190147 2.481417 -0.264418 234 234 227
2.190892 2.482245 -0.137437 234 234 227
2.191258 2.482643 -0.010217 78 82 90
2.191056 2.482398 0.117526 68 72 81
2.213283 15.889484 -0.510980 211 80 46
2.213842 15.892597 0.105932 175 124 54
2.267634 20.134939 -0.592657 176 170 164
2.421487 2.002740 -0.503131 200 201 195
2.422635 2.003681 -0.381977 190 191 186
2.423148 2.004099 -0.261233 191 193 187
2.423456 2.004346 -0.140624 193 194 188
2.423445 2.004329 -0.019832 194 195 189
2.422802 2.003790 0.101416 195 196 190
2.441519 6.549279 -0.604716 255 250 243
2.581430 4.481452 -0.499470 222 223 216
2.576481 4.480472 -0.300499 205 151 148
2.616047 6.333146 -0.069863 182 158 125
2.579996 6.568550 -0.337089 227 181 167
2.697911 2.080736 -0.397248 190 191 185
2.698469 2.081160 -0.266364 191 192 186
2.698794 2.081404 -0.135628 192 193 188
2.698767 2.081376 -0.004696 193 195 189
2.712475 5.336631 -0.086422 199 172 136
2.712490 5.453952 -0.084420 225 192 143
2.646493 6.569039 -0.337585 215 176 164
2.774562 2.098363 -0.535660 189 190 184
2.775866 2.099342 -0.401500 190 191 185
2.776439 2.099769 -0.267795 191 192 186
2.776773 2.100015 -0.134241 192 193 187
2.776745 2.099988 -0.000485 193 195 189
2.743634 6.481858 -0.607596 255 248 241
2.847539 5.853464 -0.076456 194 165 125
2.850105 6.002554 -0.073863 224 190 139
2.861412 6.152728 -0.071181 214 183 138
2.868629 6.311749 -0.068364 225 194 146
2.844265 6.545787 -0.064462 222 189 139
2.940631 4.453402 0.312523 185 149 104
2.955820 4.476384 0.523933 195 170 134
2.914505 4.498649 0.107734 199 168 122
2.938975 4.536416 0.319129 181 140 94
2.959446 5.962186 0.439657 185 153 112
2.957670 6.091494 0.450765 184 151 107
2.957703 6.229416 0.196241 215 53 47
2.955836 6.225386 0.462318 184 150 106
2.953893 6.351793 0.202528 69 71 73
2.958646 6.361932 0.474334 162 133 100
2.938101 6.526963 0.211338 140 68 69
2.956548 6.518120 0.487929 65 83 104
2.907744 6.562103 0.212481 232 51 42
2.922196 6.581481 0.492147 156 169 177
2.959778 6.680034 -0.623124 254 246 238
2.917959 6.730125 -0.624808 159 159 155
3.026208 2.166787 -0.559188 188 189 184
3.027627 2.167798 -0.415621 189 191 185
3.028239 2.168230 -0.272541 191 192 186
3.028585 2.168473 -0.129623 192 193 187
3.028541 2.168435 0.013509 193 194 189
2.967478 5.050072 0.136377 202 175 136
2.974982 5.062801 0.364107 52 64 59
2.966635 5.365252 0.152136 202 176 140
2.968833 5.841609 0.429675 186 155 112
3.117822 2.191560 -0.567802 188 189 183
3.118894 2.192307 -0.420763 189 191 185
3.119519 2.192741 -0.274269 191 192 186
3.118245 2.195292 -0.127939 192 193 187
3.118195 2.195251 0.018607 193 194 189
3.315037 2.244926 -0.586435 196 197 191
3.316581 2.245966 -0.431973 189 190 184
3.317241 2.246408 -0.278035 190 192 186
3.317599 2.246646 -0.124275 192 193 187
3.317533 2.246596 0.029715 193 194 188
3.406574 2.263878 -0.594808 224 225 218
3.423688 2.275242 -0.438080 189 190 184
3.424369 2.275689 -0.280088 190 191 186
3.424730 2.275924 -0.122277 192 193 187
3.424654 2.275870 0.035768 193 194 189
3.444495 2.246082 -0.596927 224 225 218
3.653073 2.336934 -0.451184 189 190 184
3.653793 2.337391 -0.284491 190 191 185
3.654158 2.337621 -0.117990 192 193 187
3.654062 2.337556 0.048756 193 194 188
3.632684 5.943837 -0.603506 70 71 69
3.738488 3.091783 2.323896 180 188 207
3.826908 -15.792002 0.113499 245 66 58
3.911638 2.407292 -0.466061 188 190 184
3.912395 2.407755 -0.289489 190 191 185
3.912772 2.407984 -0.113123 191 192 187
3.912651 2.407906 0.063502 193 194 188
3.915070 3.069170 2.388198 169 180 198
3.918256 3.188212 2.428230 177 186 206
3.940268 1.367308 -0.602640 233 234 227
3.981436 2.854722 2.348805 53 63 52
3.928478 3.939669 2.428791 156 168 187
3.935554 15.921057 0.112359 233 52 43
4.061505 1.861572 2.346786 147 164 186
4.109710 2.015093 -0.289167 235 235 229
4.082888 15.920218 -0.518923 232 51 42
4.083808 15.923345 0.113064 233 52 43
4.211322 -5.357469 -0.594045 234 234 228
4.162453 1.777741 2.154589 171 179 69
4.174959 1.869683 2.179744 141 158 184
4.202763 2.486474 -0.482896 188 189 183
4.203553 2.486940 -0.295145 189 191 185
4.203945 2.487170 -0.107614 191 192 186
4.203792 2.487077 0.080190 193 194 188
4.231821 15.922519 -0.519722 232 51 42
4.232771 15.925646 0.113797 233 52 43
4.245262 5.547700 -0.604711 233 232 227
4.326735 0.813939 2.310112 91 105 124
4.395474 1.355470 2.422394 112 133 169
4.326240 3.706649 2.764724 180 187 196
4.361026 12.364033 0.049401 233 51 43
4.393285 15.921583 -0.520562 232 51 42
4.394266 15.924707 0.114544 233 52 43
4.461100 1.461184 2.242379 118 139 173
4.466925 1.771038 0.637145 190 168 166
4.466234 1.953373 0.079651 201 202 196
4.421609 1.933926 1.856950 136 156 179
4.523609 1.702904 0.263985 184 170 170
4.559481 1.807657 0.270828 101 79 74
4.521169 1.792526 1.239114 210 182 175
4.550753 1.850240 0.851634 101 91 84
4.539388 1.938390 -0.485965 201 187 180
4.544698 1.964159 -0.296450 163 143 139
4.536242 1.937105 1.682041 210 207 159
4.497965 2.014074 0.082730 203 203 198
4.556935 2.088278 0.281188 205 205 200
4.529613 2.574268 -0.501856 187 189 183
4.530442 2.574738 -0.301515 189 190 184
4.530847 2.574967 -0.101410 191 192 186
4.502499 12.418885 0.051272 233 51 43
4.543718 15.923794 -0.521418 232 51 42
4.544729 15.926922 0.115332 233 52 43
4.569888 -5.225981 -0.601489 234 235 228
4.569666 -5.134471 -0.597524 234 235 228
4.569408 -5.044706 -0.593662 234 235 228
4.569108 -4.956619 -0.589900 232 233 226
4.568767 -4.870147 -0.586235 231 232 225
4.567866 -4.784694 -0.582620 228 228 221
4.628082 -4.763805 -0.328336 76 82 91
4.618084 -4.664598 -0.579689 235 235 228
4.563000 0.735278 2.435427 28 40 21
4.631622 1.652006 1.051948 139 134 116
4.590093 1.682456 1.883802 225 226 166
4.594193 1.775228 -0.485347 109 88 84
4.627992 1.881598 1.071918 197 178 175
4.612757 1.922365 0.086705 76 75 60
4.564276 1.949031 0.664675 195 165 162
4.628966 2.170228 0.690747 207 208 202
4.626598 2.268237 0.495161 206 207 201
4.632735 5.536641 -0.618280 233 234 227
4.631274 12.434618 0.052379 233 51 43
4.671185 -4.636237 -0.327198 76 82 92
4.713685 1.498353 1.687360 228 224 178
4.648799 1.612566 -0.295848 90 80 73
4.708821 1.633410 1.274895 174 154 149
4.653936 1.705717 -0.487170 204 188 183
4.641282 1.701103 -0.106481 48 42 34
4.669174 1.711328 0.470907 125 87 82
4.668623 1.711134 0.666338 92 87 70
4.689251 1.765185 1.494497 180 168 163
4.650805 1.792994 1.701940 159 151 147
4.710012 1.773002 1.945260 133 155 181
4.680490 1.855569 0.877890 54 43 36
4.694762 1.956516 1.094934 209 210 204
4.687327 1.953428 1.302699 125 109 90
4.719428 1.922798 1.523474 194 178 187
4.708665 2.010607 1.103557 201 206 205
4.652533 2.083187 -0.103563 244 242 229
4.717324 2.112168 0.296194 228 222 202
4.719252 2.162594 1.780881 137 159 88
4.675794 2.242021 -0.301021 226 237 220
4.711170 2.258976 0.504905 206 207 201
4.697622 2.354000 2.039829 90 112 49
4.714842 2.625394 -0.512676 187 188 182
4.715691 2.625865 -0.305150 189 190 184
4.716097 2.626092 -0.097869 191 192 186
4.697731 2.562523 2.328237 165 173 191
4.718218 2.791188 2.652682 38 48 29
4.717054 5.538626 -0.621527 233 234 227
4.694944 15.926018 -0.522302 232 51 42
4.695984 15.929147 0.116149 233 52 43
4.746530 -4.556208 -0.580606 235 235 229
4.726923 0.974311 2.311455 60 72 79
4.749002 1.284847 1.897203 128 145 176
4.798299 1.574991 0.284826 103 100 85
4.750842 1.601660 -0.490469 201 188 183
4.739721 1.601845 -0.105335 139 116 110
4.723040 1.642065 1.279708 141 91 85
4.734317 1.688568 1.287442 142 91 85
4.798232 1.762635 2.215101 223 233 127
4.727211 2.166216 0.706017 207 208 202
4.827018 -4.968285 2.147999 72 81 75
4.823721 -4.964778 2.447251 75 83 78
4.839692 -4.888883 -0.068351 99 111 122
4.841122 -4.890238 0.196742 197 179 152
4.841291 -4.890318 0.462993 158 86 69
4.846245 -4.895178 0.732156 254 136 104
4.845371 -4.894262 1.003241 254 141 110
4.852707 -4.901585 1.280395 236 122 96
4.847601 -4.896230 1.843614 128 153 202
4.847766 -4.895960 2.743249 110 136 196
4.872859 -4.843601 1.274625 237 123 97
4.870876 -4.841531 1.552734 107 130 166
4.873250 -4.843598 2.427515 97 120 157
4.840685 -4.639861 -0.329614 75 80 89
4.864160 0.653607 2.598896 58 70 42
4.835664 1.218240 1.925858 124 134 69
4.846998 1.634032 0.093499 160 140 134
4.802029 1.618970 1.513894 171 169 155
4.871495 2.181120 0.942763 208 209 203
4.820474 2.162609 1.816137 222 223 184
4.812599 2.517373 2.626264 159 171 191
4.866359 2.821843 2.727399 204 194 179
4.805513 5.543890 -0.625107 233 234 227
4.872054 5.620647 -0.344796 84 88 95
4.870312 5.718615 -0.346214 209 150 141
4.846991 15.928251 -0.523215 232 51 42
4.848062 15.931387 0.116995 233 52 43
4.924294 -4.638354 -0.330777 76 82 92
4.917698 0.487048 2.618372 79 95 41
4.950428 0.753101 2.406009 156 145 135
4.900128 2.245353 0.527258 229 210 196
4.909386 2.677885 -0.524031 187 188 182
4.910251 2.678356 -0.308964 188 190 184
4.910655 2.678577 -0.094154 190 192 186
5.009395 -4.636810 -0.331971 76 82 92
5.015163 -1.512205 -0.503333 125 126 127
4.990726 -1.485372 -0.301132 121 122 122
5.007866 1.639701 -0.100277 112 91 87
4.981459 2.661134 2.468587 194 211 116
4.999890 15.930500 -0.524158 232 51 42
5.000990 15.933632 0.117870 233 52 43
5.092673 -4.639063 -0.333195 104 110 117
5.089972 -4.476495 -0.592163 235 235 229
5.096000 -0.520201 2.722456 130 145 173
5.058707 1.954488 2.111999 144 162 185
5.093184 2.174571 1.673172 207 207 202
5.118638 2.734352 -0.313056 188 189 185
5.119036 2.734564 -0.090168 190 191 185
5.117101 5.415864 2.321294 70 78 74
5.073462 5.456297 1.396041 198 199 193
5.071599 5.454258 1.697355 198 199 194
5.068368 5.450746 2.003832 194 195 190
5.079103 5.462256 2.323961 154 172 199
5.074752 5.457540 2.645306 152 172 198
5.070337 5.549231 0.814819 196 197 192
5.074874 5.554163 1.111706 197 198 192
5.089478 5.570114 1.416329 197 198 193
5.093142 5.574087 1.723564 197 198 193
5.095537 5.576673 2.036752 193 194 189
5.180946 -4.637527 -0.334454 104 110 117
5.152644 -2.549180 -0.311484 212 191 161
5.147233 -1.507510 0.315695 103 104 104
5.123771 -1.073057 -0.503183 234 235 228
5.125365 -1.073359 -0.301765 205 132 117
5.126656 -1.073598 -0.100530 239 204 186
5.127146 -1.073667 0.101055 248 65 54
5.138514 0.328384 2.480120 97 115 52
5.195909 1.552156 2.111978 124 145 175
5.185934 2.655213 2.553063 133 148 170
5.138375 2.744886 -0.537567 186 188 182
5.199119 2.724277 2.573634 103 115 131
5.156713 5.363421 0.804427 53 62 56
5.155910 5.362555 1.096926 56 65 60
5.153672 15.932760 -0.525131 232 51 42
5.154802 15.935895 0.118774 233 52 43
5.203315 -0.280370 2.512854 102 122 160
5.210481 0.515682 2.274493 97 117 53
5.233382 1.922195 2.701520 122 139 175
5.275456 1.985481 2.733555 126 145 177
5.245214 2.920492 2.636951 93 101 112
5.260709 2.989442 2.659335 82 91 93
5.276035 3.059250 2.682070 89 97 104
5.210964 3.600392 2.793255 180 187 204
5.232103 3.947656 2.594862 163 175 196
5.329127 0.247184 2.321484 102 125 56
5.289611 0.337851 2.305111 110 119 86
5.292377 3.130639 2.705813 171 179 198
5.308369 15.935036 -0.526134 232 51 42
5.309528 15.938171 0.119709 233 52 43
5.396523 4.161415 2.401421 185 191 205
5.480555 2.401237 2.083802 190 209 98
5.491164 3.787942 2.644660 160 174 195
5.464011 15.937326 -0.527169 232 51 42
5.465201 15.940462 0.120674 233 52 43
5.525239 0.352629 2.161092 119 137 170
5.550524 1.239952 2.760270 50 63 44
5.631341 -15.758592 -0.521437 244 64 55
5.653128 3.685370 2.677711 167 177 197
5.603761 4.321219 2.194292 189 195 207
5.620629 15.939627 -0.528234 232 51 42
5.716259 4.244616 2.209017 199 200 194
5.708690 4.482010 1.948856 202 203 198
5.786034 -15.756200 -0.522440 244 64 55
5.787242 -15.759032 0.123401 245 65 57
5.780818 3.920056 2.466380 145 152 157
5.796679 4.422985 1.958786 202 203 197
5.778262 15.941947 -0.529331 232 51 42
5.868469 3.540615 2.722780 85 101 71
5.887230 3.844154 2.484175 69 89 38
5.856966 4.591425 1.695808 203 204 198
5.929999 -15.758192 -0.523464 244 64 55
5.942910 -15.756623 0.124366 245 65 57
5.937844 4.096010 2.240760 129 142 105
5.939058 4.330265 1.976163 203 204 199
5.936940 15.944281 -0.530460 232 51 42
6.075375 1.814245 2.796782 169 177 65
6.002733 3.139356 2.688775 154 168 191
6.086617 -15.755886 -0.524529 244 64 55
6.087882 -15.758716 0.125372 244 65 57
6.089536 3.123148 2.718520 208 218 129
6.105946 3.683829 2.522408 71 88 36
6.096697 15.946625 -0.531622 181 101 105
6.161881 -3.323064 -0.605268 236 236 230
6.182045 -2.540153 -0.329681 217 198 168
6.192486 3.619967 2.538417 65 78 33
6.164102 3.942270 2.275797 98 121 54
6.167700 4.175688 2.005278 204 205 199
6.244249 -15.753568 -0.525626 244 64 55
6.245541 -15.756391 0.126399 244 65 56
6.253953 -3.096126 -0.604003 203 130 118
6.310102 3.399476 2.536380 110 130 59
6.360918 4.029100 2.029413 148 162 120
6.395993 8.669172 -0.409644 187 188 182
6.402925 -15.751232 -0.526755 244 64 55
6.404247 -15.754057 0.127458 244 65 56
6.479263 3.539761 2.298260 118 146 63
6.456478 3.674670 2.313757 106 132 57
6.417971 4.183841 1.751697 196 197 191
6.425371 8.551866 -0.408164 188 189 184
6.426862 8.553778 0.003001 189 190 185
6.423867 8.549721 0.414524 190 191 186
6.554855 3.142042 2.259627 137 158 82
6.500800 3.921954 2.047967 154 162 136
6.532484 4.098030 1.764515 186 187 180
6.562680 -15.748878 -0.527917 244 64 55
6.564033 -15.751701 0.128548 244 65 56
6.610478 -5.817186 -0.031586 231 219 190
6.612025 -5.818447 0.307694 218 199 170
6.600979 2.885729 2.237697 193 189 160
6.630959 3.467674 2.015592 150 158 129
6.571925 8.589970 -0.410487 208 189 162
6.573275 8.591663 0.005245 208 188 159
6.590473 8.614082 0.423254 211 191 162
6.582823 15.953791 -0.535309 74 76 78
6.701468 -11.094838 -0.449628 182 81 64
6.704413 -11.099480 0.049124 184 81 65
6.706062 -11.101971 0.548892 185 82 66
6.705966 -11.101566 1.050791 187 83 66
6.710852 -11.109172 2.068990 189 84 68
6.707497 -10.887754 1.531801 189 84 67
6.705939 -10.884983 2.035041 190 85 68
6.696656 -10.871078 -0.445930 183 81 65
6.699595 -10.875623 0.045373 185 82 65
6.701221 -10.878029 0.537674 186 83 66
6.701105 -10.877603 1.032071 187 83 67
6.693717 -10.656645 -0.442421 184 81 65
6.696656 -10.661104 0.041813 186 82 65
6.698255 -10.663424 0.527029 187 83 66
6.698120 -10.662977 1.014309 189 84 67
6.704484 -10.672894 1.506840 190 85 68
6.702910 -10.670151 2.002831 191 85 68
6.690855 -10.448274 -0.439030 185 82 65
6.693766 -10.452602 0.038371 186 83 66
6.695370 -10.454888 0.516740 188 83 66
6.695214 -10.454420 0.997139 189 84 67
6.701556 -10.464113 1.482713 191 85 68
6.699962 -10.461393 1.971696 192 86 69
6.688064 -10.245666 -0.435751 186 82 65
6.690951 -10.249881 0.035042 187 83 66
6.692559 -10.252133 0.506789 189 84 67
6.692383 -10.251642 0.980535 190 85 67
6.698698 -10.261114 1.459380 191 85 68
6.697087 -10.258420 1.941585 193 86 69
6.685345 -10.048575 -0.432578 187 83 66
6.688209 -10.052676 0.031821 188 83 66
6.689802 -10.054862 0.497160 189 84 67
6.689624 -10.054383 0.964471 191 85 68
6.695914 -10.063642 1.436807 192 86 68
6.694286 -10.060974 1.912456 194 87 69
6.682688 -9.856732 -0.429508 187 83 66
6.685530 -9.860726 0.028703 189 84 67
6.687104 -9.862847 0.487839 190 85 67
6.686928 -9.862382 0.948922 192 86 68
6.693195 -9.871432 1.414958 193 86 69
6.691551 -9.868793 1.884261 194 87 69
6.680085 -9.669899 -0.426534 188 83 66
6.682904 -9.673787 0.025684 190 84 67
6.684463 -9.675846 0.478813 191 85 68
6.684278 -9.675380 0.933863 192 86 68
6.697705 -9.679287 1.393795 194 87 69
6.696044 -9.676678 1.856952 195 88 70
6.677538 -9.487859 -0.423654 189 84 66
6.680338 -9.491650 0.022760 190 85 67
6.681878 -9.493646 0.470070 192 86 68
6.681679 -9.493168 0.919275 193 86 68
6.687928 -9.501863 1.373304 195 87 69
6.686251 -9.499278 1.830509 196 88 70
6.675036 -9.310394 -0.420863 189 84 66
6.677817 -9.314088 0.019925 191 85 67
6.679340 -9.316029 0.461596 192 86 68
6.679127 -9.315537 0.905136 194 87 69
6.685369 -9.324065 1.353441 195 88 69
6.683680 -9.321512 1.804877 197 89 70
6.672578 -9.137303 -0.418157 190 84 67
6.675338 -9.140904 0.017177 191 85 67
6.676847 -9.142792 0.453381 193 86 68
6.676616 -9.142288 0.891428 194 87 69
6.682845 -9.150644 1.334181 196 88 70
6.681153 -9.148136 1.780027 197 89 70
6.670159 -8.968406 -0.415532 191 85 67
6.672900 -8.971918 0.014511 192 86 68
6.674394 -8.973749 0.445413 194 87 68
6.674148 -8.973237 0.878133 195 87 69
6.680358 -8.981420 1.315500 196 88 70
6.678667 -8.978955 1.755925 198 89 71
6.670491 -8.806937 0.011925 193 86 68
6.671968 -8.808716 0.437681 194 87 69
6.671708 -8.808196 0.865233 196 88 69
6.677899 -8.816204 1.297373 197 89 70
6.676204 -8.813783 1.732538 198 90 71
6.674290 -8.798571 -0.412990 191 85 67
6.668538 -8.646182 0.430079 195 87 69
6.668266 -8.645657 0.852549 196 88 70
6.674434 -8.653496 1.279550 198 89 70
6.672725 -8.651102 1.709539 199 90 71
6.682136 -8.663147 2.149035 200 91 72
6.670774 -8.636176 -0.410486 192 85 67
6.673480 -8.639517 0.009377 193 86 68
6.657501 -8.476970 2.114199 238 125 98
6.711276 3.003819 1.977066 205 206 200
6.714477 3.738019 1.757734 187 188 182
6.645957 4.009495 1.777337 206 207 201
6.723555 -15.746517 -0.529112 244 63 55
6.724936 -15.749332 0.129672 244 65 56
6.720620 -11.106997 1.558100 188 84 67
6.725516 -8.399619 -0.407598 222 108 84
6.783523 3.107354 1.700772 193 195 188
6.747262 15.956190 -0.536607 59 64 67
6.831882 -8.394266 -0.408823 222 108 84
6.833275 -8.395816 0.007547 224 110 86
6.833666 -8.396134 0.424601 227 112 88
6.832273 -8.394256 0.843277 229 115 90
6.843414 -8.395079 1.266241 232 118 93
6.834308 -8.396426 1.692075 235 121 95
6.815572 3.564153 1.447587 207 208 203
6.819826 8.599072 -0.413611 226 209 180
6.820121 8.599379 0.008224 223 205 177
6.823466 8.603531 0.430991 184 189 187
6.885580 -15.744126 -0.530341 244 63 55
6.886992 -15.746946 0.130829 244 64 56
6.952964 -8.392473 -0.410300 222 108 84
6.953361 -8.392463 0.850520 229 115 90
6.941605 8.597589 -0.415079 218 198 166
6.943023 8.599280 0.009672 222 203 172
6.912975 15.958624 -0.537940 61 65 68
6.960598 -8.388869 0.008966 224 110 86
6.960997 -8.389189 0.428924 227 112 88
6.964586 -8.393193 1.276430 232 118 93
6.961648 -8.389482 1.705225 235 121 96
7.033333 -2.394912 -0.344231 200 129 116
7.035631 -2.395641 -0.058568 247 63 52
7.036721 -2.395958 0.227627 248 64 53
7.033259 -2.394720 0.514717 135 150 167
6.965399 8.640026 0.437728 224 213 190
7.048795 -15.741722 -0.531604 244 63 55
7.050238 -15.744543 0.132019 244 64 56
7.075752 -8.390654 -0.411813 222 107 84
7.077192 -8.392201 0.010429 224 110 86
7.077594 -8.392518 0.433365 227 112 88
7.076152 -8.390641 0.857946 230 115 90
7.081242 -8.396524 1.286880 232 118 93
7.078254 -8.392809 1.718714 236 122 96
7.112484 -5.518529 -0.374172 211 190 161
7.107407 -5.230329 -0.370780 211 190 159
7.109582 -5.231837 -0.031367 214 194 163
7.110669 -5.232542 0.308672 213 193 162
7.098084 -4.941650 -0.367431 216 196 167
7.097119 -4.759736 -0.365460 213 190 159
7.099578 -4.761301 -0.036791 211 189 158
7.100793 -4.762029 0.292499 214 194 164
7.100184 -4.584047 -0.038680 210 190 159
7.100857 -4.584396 0.286832 213 192 162
7.046824 -4.201611 -0.358953 218 200 171
7.048388 -4.202465 -0.043445 219 200 171
7.048887 -4.202682 0.272593 219 199 170
7.119149 -4.077927 -0.358975 146 139 129
7.092249 -4.069232 0.587105 129 149 169
7.083336 -3.821393 -0.355994 219 200 171
7.085725 -3.822611 -0.046481 218 199 169
7.086886 -3.823165 0.263613 220 202 173
7.086981 -3.665126 -0.354669 210 188 156
7.088765 -3.665979 -0.047859 213 192 160
7.089440 -3.666257 0.259482 214 193 162
7.076443 -3.351992 -0.351843 219 201 172
7.078802 -3.353045 -0.050743 216 195 164
7.079940 -3.353517 0.250920 220 201 172
7.080151 -3.197230 0.247115 225 208 180
7.073276 -2.907511 0.240073 241 107 89
7.067780 -2.762203 -0.347250 203 131 116
7.070106 -2.763053 -0.055477 237 123 103
7.071215 -2.763429 0.236841 241 108 90
7.067014 -2.550784 -0.345827 216 197 168
7.068506 -2.551266 -0.056968 218 199 170
7.068946 -2.551368 0.232372 221 202 173
7.115011 8.517113 0.437649 197 195 188
7.067896 8.599524 -0.416669 219 198 163
7.069332 8.601210 0.011207 188 191 188
7.079996 15.961077 -0.539310 62 65 69
7.130486 -6.850768 -0.010746 214 194 164
7.130035 -6.731576 -0.012349 211 116 94
7.145228 -6.745822 0.366558 224 110 86
7.125565 -6.610609 -0.014017 218 200 172
7.123214 -6.608303 0.360186 215 197 168
7.120627 -5.726622 0.326614 211 191 160
7.121185 -5.634171 -0.375665 105 109 114
7.122124 -5.634812 -0.026421 232 74 63
7.122116 -5.634701 0.323355 228 177 152
7.127411 -4.870752 -0.035159 237 73 63
7.127685 -4.870850 0.297320 214 195 166
7.120726 -4.078754 -0.043471 251 226 113
7.121229 -4.078966 0.272563 241 76 64
7.135079 -2.228938 -0.632919 93 95 92
7.181988 3.365726 0.255426 204 205 200
7.196038 8.601452 -0.418299 200 194 180
7.197495 8.603132 0.012780 196 194 186
7.213241 -15.739305 -0.532902 243 63 54
7.214714 -15.742121 0.133244 244 64 56
7.206514 -8.383466 -0.413369 222 107 84
7.201760 -8.390347 0.011925 224 109 86
7.202171 -8.390664 0.437914 227 112 88
7.206914 -8.383450 0.865554 230 115 90
7.205879 -8.394669 1.297587 233 118 93
7.202839 -8.390954 1.732539 236 122 96
7.277998 -2.627251 -0.648087 254 247 237
7.230288 2.021618 -0.635129 254 244 232
7.248366 15.963552 -0.540716 214 180 131
7.326743 -8.387009 -0.414957 222 107 84
7.328231 -8.388556 0.013462 224 109 86
7.328648 -8.388873 0.442584 227 112 88
7.327150 -8.386996 0.873376 230 115 90
7.332420 -8.392878 1.308584 233 118 93
7.329324 -8.389161 1.746736 236 122 96
7.306334 -3.003797 -0.657426 255 251 245
7.300385 -2.927142 -0.655446 255 250 244
7.294578 -2.851182 -0.653523 255 250 244
7.288913 -2.775895 -0.651656 255 250 242
7.283388 -2.701259 -0.649844 254 246 236
7.346532 8.627321 0.014948 203 196 184
7.378951 -15.736862 -0.534235 243 63 54
7.380454 -15.739676 0.134503 244 64 56
7.402973 3.235967 1.530869 61 61 49
7.438407 9.563824 -0.435797 217 197 167
7.424932 10.064316 0.037366 223 47 39
7.426364 10.066170 0.518951 157 167 176
7.425338 10.064693 1.002456 181 190 203
7.431955 10.073579 1.491157 187 195 207
7.429853 10.070639 1.983261 181 193 207
7.432629 10.089952 2.486216 173 187 207
7.399097 10.214598 0.039394 223 47 39
7.400534 10.216491 0.525069 153 163 177
7.400043 10.215721 1.012765 178 189 201
7.406649 10.224754 1.505653 190 198 207
7.404562 10.221781 2.001973 184 192 207
7.407208 10.241302 2.509241 173 186 207
7.418128 15.966047 -0.542160 218 189 147
7.456521 -8.386667 0.015036 224 110 86
7.456942 -8.386983 0.447369 227 112 88
7.455418 -8.385105 0.881383 230 115 90
7.460781 -8.390985 1.319846 233 118 93
7.457627 -8.387270 1.761275 236 121 96
7.457837 8.604898 0.015994 224 206 175
7.515166 9.490345 0.963753 192 193 188
7.519651 9.495860 1.913001 194 195 190
7.448152 9.561654 0.029985 226 207 177
7.464140 9.582109 0.498036 228 209 179
7.498609 9.626297 0.973060 192 193 188
7.505255 9.634755 1.449821 193 194 188
7.503103 9.631910 1.929900 193 194 189
7.513418 9.645079 2.420551 192 193 188
7.474607 9.770065 0.982611 191 192 187
7.481246 9.778664 1.463252 192 193 188
7.479110 9.775787 1.947238 193 194 189
7.489402 9.789164 2.441884 192 193 188
7.442841 9.921682 0.992417 191 192 187
7.456814 9.924908 1.477026 192 193 187
7.454694 9.921997 1.965019 192 193 188
7.464967 9.935591 2.463763 191 192 187
7.545970 -15.734402 -0.535605 243 63 54
7.547505 -15.737215 0.135799 244 64 56
7.586745 -8.384739 0.016650 224 109 86
7.587175 -8.385057 0.452274 227 112 88
7.585623 -8.383175 0.889593 230 115 90
7.591078 -8.389056 1.331394 233 118 93
7.587870 -8.385342 1.776185 236 121 96
7.525613 -7.891264 0.008845 42 53 43
7.564913 -6.658979 -0.394838 213 191 159
7.590206 9.072549 0.937088 194 195 189
7.596893 9.080476 1.399240 194 195 190
7.594678 9.077760 1.864606 195 196 191
7.598340 9.095752 2.340221 196 197 191
7.568742 9.208963 0.485001 192 193 188
7.567557 9.207454 0.945700 193 194 189
7.574234 9.215509 1.411350 194 195 190
7.572032 9.212761 1.880238 195 196 190
7.582413 9.225323 2.359447 195 196 191
7.545381 9.345442 0.954658 193 194 188
7.552049 9.353629 1.423946 193 195 189
7.549864 9.350850 1.896498 194 195 190
7.560222 9.363607 2.379452 194 195 190
7.528852 9.493101 1.436722 193 194 189
7.537019 9.503249 2.399745 193 194 189
7.589325 15.968562 -0.543642 216 185 139
7.677518 8.564965 1.353651 196 197 192
7.675245 8.562373 1.805752 197 198 192
7.662658 8.686868 1.364634 196 197 191
7.660398 8.684246 1.819932 196 197 192
7.670854 8.696041 2.285244 197 198 192
7.666922 8.691521 2.753977 194 195 190
7.634861 8.809145 0.469847 230 211 182
7.634265 8.808395 0.920464 194 196 190
7.641102 8.816222 1.375891 195 196 191
7.638856 8.813571 1.834465 196 197 191
7.649293 8.825551 2.303126 196 198 192
7.645382 8.820974 2.775232 193 194 189
7.613075 8.940360 0.474766 193 194 189
7.612487 8.939606 0.928685 194 195 190
7.619184 8.947407 1.387424 195 196 191
7.616952 8.944721 1.849352 196 197 191
7.623479 8.952256 2.797007 192 193 188
7.714340 -15.731924 -0.537011 243 63 54
7.715905 -15.734732 0.137130 244 64 55
7.718977 -8.382780 0.018306 224 109 86
7.719412 -8.383095 0.457306 227 112 88
7.717832 -8.381217 0.898013 230 115 90
7.723380 -8.387090 1.343237 233 118 93
7.720115 -8.383379 1.791474 236 122 96
7.750168 15.976838 -0.545147 215 183 138
7.837365 7.603041 1.274760 199 200 194
7.834987 7.600693 1.703911 199 200 195
7.824343 7.712536 1.283850 198 199 194
7.821975 7.710160 1.715648 199 200 195
7.832567 7.720559 2.156930 199 201 195
7.828495 7.716501 2.601457 199 200 194
7.804925 7.828741 1.293074 214 214 209
7.802572 7.826336 1.727555 199 200 194
7.809090 7.832785 2.618870 198 199 194
7.807339 7.842683 2.171589 235 233 229
7.785178 7.946322 1.302511 37 49 40
7.782837 7.943886 1.739738 37 48 41
7.793398 7.954618 2.186572 37 49 41
7.789359 7.950448 2.636690 36 47 41
7.884099 -15.729424 -0.538455 243 63 54
7.885695 -15.732231 0.138498 244 64 55
7.853275 -8.380779 0.020004 184 167 141
7.853717 -8.381095 0.462466 216 170 143
7.852108 -8.379215 0.906648 230 115 90
7.857752 -8.385089 1.355384 233 118 93
7.854429 -8.381377 1.807155 237 123 96
7.887065 -7.191276 0.004223 213 193 162
7.894562 -3.246209 -0.037421 221 203 175
7.917319 7.151296 1.240875 200 201 195
7.914886 7.149065 1.660169 200 201 196
7.916111 7.160755 2.520326 201 202 196
7.898856 7.260672 1.248995 200 201 195
7.896438 7.258414 1.670652 200 201 196
7.907098 7.268178 2.101567 201 202 196
7.902960 7.264339 2.535649 201 202 196
7.880852 7.371922 1.257443 199 200 195
7.889092 7.379557 2.114986 200 201 196
7.884971 7.375663 2.551600 200 201 196
7.862086 7.483963 1.266000 199 200 195
7.859693 7.481647 1.692605 200 200 195
7.870319 7.491724 2.128578 200 201 196
7.866213 7.487776 2.567755 200 201 195
7.858832 10.849610 -0.460690 186 140 135
7.990247 -8.379147 0.467766 41 53 43
7.988611 -8.377270 0.915517 45 57 47
7.990970 -8.379427 1.823261 41 54 45
7.936508 -7.236301 0.419204 202 181 151
7.997988 6.624609 1.611211 202 203 197
7.988303 6.724782 1.210185 201 202 197
7.985823 6.722668 1.620550 202 202 197
7.996570 6.731688 2.039922 202 203 197
7.992355 6.728113 2.462374 202 203 197
7.970790 6.829666 1.217564 201 202 196
7.968322 6.827522 1.630076 201 202 197
7.979055 6.836690 2.051643 202 202 197
7.974855 6.833061 2.476307 202 203 197
7.952947 6.935530 1.225103 201 201 196
7.950489 6.933356 1.639809 201 202 196
7.961201 6.942669 2.063617 201 202 197
7.957018 6.938989 2.490540 202 202 197
7.943711 7.050282 2.076053 201 202 197
7.925569 7.158680 2.088670 201 202 196
7.936201 15.973649 -0.546722 216 186 141
8.055294 -15.726902 -0.539936 243 62 54
8.056921 -15.729707 0.139904 244 64 55
8.000563 -8.377219 1.367855 45 57 48
8.077689 6.117312 0.773726 202 203 197
8.065707 6.210104 0.778224 202 203 197
8.072607 6.215396 1.175845 202 203 198
8.070074 6.213427 1.576219 203 204 198
8.076292 6.227726 1.985384 203 204 198
8.053705 6.313419 1.584675 202 203 198
8.051548 6.321382 1.182402 202 203 198
8.064519 6.321873 1.995781 203 204 198
8.036787 6.414062 1.593261 202 203 198
8.047585 6.422656 2.006346 202 203 198
8.022602 6.518063 1.195938 202 202 197
8.030882 6.524742 2.017294 202 203 198
8.005383 6.620770 1.202945 201 202 197
8.049501 6.575210 2.448642 202 203 198
8.157978 5.636107 0.752831 203 204 197
8.146430 5.724668 0.756784 203 204 198
8.153362 5.729526 1.145693 204 204 199
8.150786 5.727701 1.537294 204 205 199
8.157444 5.741394 1.937490 204 205 199
8.130589 5.820077 0.760853 203 204 198
8.137513 5.825019 1.151415 203 204 199
8.134943 5.823164 1.544681 204 205 199
8.145837 5.830945 1.946572 204 205 199
8.129835 5.927357 1.955901 204 204 199
8.111977 15.976231 -0.548322 213 176 127
8.227967 -15.724353 -0.541457 243 62 54
8.178633 -7.859539 0.454052 225 110 87
8.193402 -7.087192 -0.409447 218 200 170
8.195687 -7.089042 0.007271 215 196 166
8.196657 -7.089754 0.424730 217 198 170
8.238875 5.168147 0.734552 204 205 199
8.239395 5.176966 1.496935 205 206 201
8.223757 5.259117 0.738007 204 205 199
8.230732 5.263569 1.119285 205 205 200
8.228108 5.261883 1.503201 205 206 200
8.239096 5.268899 1.895533 205 206 200
8.208538 5.350779 0.741561 204 204 199
8.212887 5.353594 1.509653 205 206 200
8.211535 5.361392 1.124289 204 205 200
8.219888 5.366826 1.903479 205 206 200
8.197551 5.446011 1.516285 205 206 200
8.241279 -15.721063 0.141338 243 63 55
8.313735 4.723271 0.349160 204 205 199
8.312851 4.722767 0.718689 205 206 200
8.316376 4.732916 1.092120 206 206 201
8.317204 4.725235 1.468123 206 207 202
8.298259 4.810645 0.721678 205 206 200
8.305275 4.814709 1.096319 205 206 201
8.302611 4.813161 1.473551 206 207 201
8.313675 4.819571 1.859051 206 207 202
8.298971 4.908197 1.865933 206 207 201
8.254230 5.177755 1.887816 205 206 201
8.395483 4.205107 -0.382940 201 202 196
8.398207 4.206474 -0.022039 203 204 198
8.396379 4.213343 0.339538 204 205 200
8.398596 4.206675 0.702582 206 207 201
8.399835 4.215086 1.438878 207 208 203
8.381403 4.289853 -0.383441 189 190 184
8.384121 4.291247 -0.021551 247 247 244
8.385412 4.291909 0.341010 204 205 200
8.384514 4.291452 0.705056 206 207 201
8.391582 4.295072 1.072938 206 207 202
8.388871 4.293688 1.443364 207 208 202
8.367222 4.375062 -0.383958 189 192 185
8.369942 4.376485 -0.021048 203 203 198
8.363153 4.466204 1.080246 206 207 201
8.360456 4.464765 1.452800 207 207 202
8.371590 4.470708 1.833519 207 208 203
8.353867 4.563304 1.839616 207 208 202
8.413815 -15.715560 -0.543026 243 62 54
8.403858 -15.724588 0.142830 243 63 55
8.577937 -15.719191 -0.544617 243 62 54
8.579663 -15.721997 0.144352 243 63 55
8.637440 15.990616 -0.553361 214 179 133
8.705704 -8.366716 0.963419 229 114 89
8.711956 -8.372576 1.435233 232 117 92
8.708263 -8.368865 1.910240 236 122 96
8.755333 -15.716578 -0.546258 243 62 53
8.757088 -15.719378 0.145915 243 63 55
8.856657 -8.364475 0.973770 228 113 89
8.863017 -8.370334 1.449792 232 117 92
8.859260 -8.366623 1.929034 236 122 96
8.831782 15.986774 -0.555143 223 142 109
8.934394 -15.713933 -0.547941 242 62 53
8.936184 -15.716730 0.147518 243 63 55
9.010321 -8.362179 0.984396 228 113 89
9.016788 -8.368034 1.464737 232 117 92
9.012968 -8.364324 1.948327 235 121 95
9.016174 15.989471 -0.556957 227 86 63
9.074169 17.524130 -0.583642 196 163 117
9.126817 -15.704508 -0.549677 181 80 64
9.128641 -15.707301 0.149155 183 81 65
9.166920 -8.359938 0.995322 228 113 89
9.173498 -8.365791 1.480105 231 116 92
9.169610 -8.362082 1.968167 235 121 95
9.123152 -8.175504 0.034397 221 108 86
9.123739 -8.175881 0.506309 214 100 78
9.195457 3.923694 1.942326 209 210 204
9.268792 17.523958 -0.585417 227 94 70
9.297739 -15.708565 -0.551437 182 80 64
9.299596 -15.711361 0.150853 183 81 65
9.326365 -8.357576 1.006534 227 112 88
9.333059 -8.363428 1.495874 231 116 91
9.329102 -8.359719 1.988524 234 120 94
9.419686 -4.265245 -0.002925 220 201 172
9.488827 -8.355149 1.018050 126 149 173
9.495636 -8.360998 1.512070 121 144 170
9.491608 -8.357288 2.009432 113 136 169
9.502513 -4.709130 0.002212 195 173 142
9.575496 -4.336036 -0.403845 217 197 167
9.761395 16.007883 -0.564667 193 157 111
9.967733 16.003597 -0.566738 194 158 113
10.152494 16.014002 -0.568826 197 165 120
10.363239 16.009398 -0.570997 199 170 128
10.413777 3.608128 2.608891 143 127 118
10.552589 16.020166 -0.573190 127 128 134
10.739896 3.521198 0.449336 142 112 107
10.768066 16.015316 -0.575469 127 127 131
10.770326 16.018520 0.166619 112 109 110
10.829623 3.761034 2.256963 105 81 76
10.974161 16.018332 -0.577789 60 64 65
10.976440 16.021503 0.168847 53 59 65
11.182809 16.021376 -0.580166 60 63 66
11.185128 16.024551 0.171131 49 56 62
11.428949 3.737575 1.897494 86 75 69
11.394090 16.024448 -0.582601 224 47 39
11.396452 16.027628 0.173473 224 47 40
11.475958 3.864038 2.395294 106 85 80
11.828281 -7.354326 -0.469717 215 195 166
11.832341 -7.356717 0.066030 219 200 170
12.166643 3.978611 2.543654 151 142 138
12.593021 -4.791430 -0.461421 216 196 167
12.597027 -4.792851 0.056775 218 199 170
12.826025 4.193964 1.097194 151 138 134
13.183247 -6.680956 -0.486457 239 255 251
14.267960 -10.704459 -0.545050 217 197 167
14.272907 -10.707980 0.141115 222 204 175
14.254669 4.660628 -0.492149 183 174 169
15.085878 -6.366007 -0.517573 243 86 73
15.090872 -6.367982 0.112220 240 127 108
15.345606 -13.051769 -0.589414 214 195 166
15.360784 -13.044845 0.185580 217 197 169
15.389633 5.180502 1.361152 106 86 80
15.838031 3.265555 -0.514911 248 67 57
15.838326 3.397616 -0.515463 248 67 57
15.836201 3.541910 -0.516033 248 67 57
15.838673 3.554827 0.107971 249 69 58
15.834068 3.686730 -0.516629 248 67 57
15.839169 3.687959 0.108526 249 69 58
15.829087 3.843826 -0.517243 248 67 57
15.834188 3.845104 0.109122 249 69 58
15.829779 3.978043 -0.517900 248 67 57
15.834887 3.979365 0.109729 249 69 58
15.827623 4.124588 -0.518575 248 67 57
15.832730 4.125957 0.110370 249 69 58
15.825457 4.271760 -0.519277 248 67 57
15.830570 4.273178 0.111038 249 69 58
15.823277 4.419585 -0.520006 248 67 57
15.828397 4.421052 0.111733 249 68 58
15.821090 4.568093 -0.520763 248 67 57
15.826213 4.569606 0.112455 89 82 65
15.815398 4.729026 -0.521538 248 67 57
15.820523 4.730591 0.113214 75 64 49
15.816682 4.867260 -0.522360 159 161 157
15.818208 4.880590 0.113992 129 114 99
15.819602 5.019636 0.114789 226 219 215
15.974724 -8.097477 0.141677 243 78 66
15.966339 -5.305408 -0.526551 247 63 52
15.961799 -4.996346 -0.524676 118 119 120
15.966999 -4.997854 0.118607 119 120 120
15.937884 -3.196241 -0.515822 248 65 54
15.943020 -3.197171 0.109336 249 66 55
15.933382 -3.063226 -0.515263 248 65 54
15.938510 -3.064113 0.108737 249 66 55
15.931261 -2.918931 -0.514726 248 65 54
15.936388 -2.919771 0.108167 249 66 55
15.929148 -2.775134 -0.514215 248 65 54
15.934267 -2.775929 0.107622 249 66 55
15.927039 -2.631814 -0.513730 248 65 54
15.932154 -2.632564 0.107102 249 67 56
15.926783 -2.477148 -0.513266 248 65 54
15.931892 -2.477850 0.106612 249 67 56
15.922843 -2.346504 -0.512834 248 65 54
15.927950 -2.347165 0.106139 249 67 56
15.920755 -2.204468 -0.512423 248 66 55
15.925864 -2.205085 0.105695 249 67 56
15.920199 -2.051020 -0.512033 248 66 55
15.923777 -2.063385 0.105275 249 67 56
15.923113 -1.910248 0.104884 249 67 56
15.920933 -1.769243 0.104514 249 67 56
16.270767 -7.546100 -0.547731 224 205 177
16.276325 -7.548527 0.142150 219 200 171
16.424250 5.211319 -0.535663 163 165 160
16.964790 -10.741370 -0.588755 236 101 85
16.962765 -10.757503 0.183656 237 101 85
17.827919 -11.748223 -0.613282 217 197 167
17.842794 -11.738863 0.208042 236 109 93
18.082941 -12.354816 -0.623843 237 73 63
18.447836 -7.410113 -0.585628 211 190 158
18.453922 -7.412401 0.179060 215 195 164
